ply
format ascii 1.0
comment PCL generated
element vertex 1495
property float x
property float y
property float z
element camera 0
property float view_px
property float view_py
property float view_pz
property float x_axisx
property float x_axisy
property float x_axisz
property float y_axisx
property float y_axisy
property float y_axisz
property float z_axisx
property float z_axisy
property float z_axisz
property float focal
property float scalex
property float scaley
property float centerx
property float centery
property int viewportx
property int viewporty
property float k1
property float k2
end_header
-527.94611 -66.486687 1952.3097
-527.15967 -66.497086 1952.6643
-526.32336 -66.501205 1952.835
-525.53284 -66.511147 1953.1761
-524.69867 -66.515579 1953.3557
-523.90295 -66.524918 1953.6792
-523.06482 -66.528877 1953.845
-522.27838 -66.539452 1954.2047
-521.46069 -66.546074 1954.4482
-520.67548 -66.556862 1954.8145
-519.86047 -66.563873 1955.0695
-519.0672 -66.5737 1955.4071
-518.24933 -66.580399 1955.653
-517.44958 -66.589462 1955.968
-516.6438 -66.597755 1956.2607
-515.85016 -66.607674 1956.6008
-515.02527 -66.613571 1956.8229
-514.20331 -66.619858 1957.0565
-513.41504 -66.630554 1957.4193
-512.59296 -66.636879 1957.6541
-511.79434 -66.646294 1957.9792
-510.97513 -66.653061 1958.2266
-510.18356 -66.663452 1958.5804
-509.33438 -66.666344 1958.7137
-508.55392 -66.678261 1959.1123
-507.72214 -66.683464 1959.3138
-506.93115 -66.694054 1959.6735
-506.10251 -66.69973 1959.8884
-505.31696 -66.711113 1960.2711
-504.50467 -66.719002 1960.551
-503.68774 -66.726303 1960.8138
-502.896 -66.736961 1961.1753
-502.06885 -66.742958 1961.3995
-501.26553 -66.752159 1961.7178
-500.43304 -66.757484 1961.9224
-499.62195 -66.765694 1962.2117
-498.80576 -66.773262 1962.4818
-498.01657 -66.78447 1962.859
-497.20392 -66.792564 1963.1448
-496.41299 -66.803619 1963.5172
-495.58139 -66.809219 1963.7297
-494.77448 -66.818184 1964.0406
-493.94489 -66.824112 1964.2625
-493.12363 -66.831184 1964.5178
-492.31744 -66.840332 1964.8342
-491.49084 -66.846733 1965.0699
-490.64859 -66.851028 1965.2435
-489.86172 -66.8629 1965.6399
-489.04016 -66.870079 1965.8979
-488.23489 -66.879501 1966.2223
-487.44009 -66.890404 1966.59
-486.60733 -66.896126 1966.8052
-485.81317 -66.907188 1967.1775
-484.97153 -66.911728 1967.3582
-484.17169 -66.922081 1967.7092
-483.34262 -66.928406 1967.9424
-482.52002 -66.935661 1968.2024
-797.56915 -63.063686 1858.2755
-796.92023 -63.078205 1858.755
-796.15564 -63.083591 1858.9653
-795.43744 -63.092678 1859.2847
-794.77728 -63.106384 1859.7402
-794.01886 -63.112312 1859.9667
-793.32776 -63.123611 1860.3513
-792.57312 -63.129871 1860.5876
-791.86987 -63.140244 1860.9451
-791.05524 -63.14175 1861.0414
-790.31024 -63.148819 1861.3016
-789.58118 -63.157185 1861.6001
-788.81647 -63.162708 1861.8151
-788.05127 -63.168209 1862.0292
-787.29529 -63.174461 1862.2654
-786.58508 -63.184402 1862.6106
-785.83582 -63.191227 1862.8639
-785.06226 -63.19611 1863.0601
-784.36401 -63.207073 1863.4354
-783.60205 -63.212921 1863.66
-782.86621 -63.220894 1863.9473
-782.0564 -63.2229 1864.0588
-781.33313 -63.231918 1864.377
-780.58472 -63.238911 1864.6356
-779.87061 -63.248711 1864.9769
-779.09601 -63.253624 1865.1741
-778.35016 -63.26088 1865.4406
-777.59528 -63.26741 1865.6858
-776.90015 -63.278835 1866.0752
-776.11859 -63.283234 1866.2573
-775.37134 -63.29044 1866.5226
-774.60895 -63.296429 1866.7517
-773.85303 -63.302959 1866.9969
-773.08533 -63.30854 1867.2144
-772.36707 -63.318188 1867.5514
-771.59662 -63.323578 1867.7631
-770.85535 -63.331367 1868.0458
-770.08759 -63.337002 1868.2648
-769.35352 -63.345417 1868.5658
-768.58508 -63.351028 1868.7841
-767.81335 -63.356373 1868.9948
-767.065 -63.363659 1869.2627
-766.33594 -63.37257 1869.5784
-765.57104 -63.378529 1869.8071
-764.85077 -63.388191 1870.1453
-764.0575 -63.39183 1870.3057
-763.32056 -63.400154 1870.6042
-762.58282 -63.408424 1870.9014
-761.8161 -63.41431 1871.1281
-761.03369 -63.418896 1871.3164
-760.30737 -63.428173 1871.6434
-759.53925 -63.433979 1871.8679
-758.81598 -63.44355 1872.2036
-758.04272 -63.448963 1872.4165
-757.32507 -63.459038 1872.7671
-756.55902 -63.46508 1872.9988
-755.78516 -63.470482 1873.2115
-755.01477 -63.476192 1873.4333
-754.27264 -63.484291 1873.7257
-753.51337 -63.490963 1873.9761
-752.79114 -63.500774 1874.319
-752.02887 -63.507233 1874.563
-751.26453 -63.513527 1874.8022
-750.49274 -63.519203 1875.0233
-749.78333 -63.530182 1875.4009
-749.00256 -63.535137 1875.6006
-748.24762 -63.542286 1875.8652
-747.4798 -63.54837 1876.0983
-746.71222 -63.554482 1876.3324
-745.95068 -63.561119 1876.582
-745.22791 -63.571091 1876.9298
-744.43109 -63.574749 1877.0916
-743.72437 -63.586121 1877.481
-742.95624 -63.592266 1877.7162
-742.18774 -63.598392 1877.9508
-741.40228 -63.603085 1878.1431
-740.67572 -63.612843 1878.4849
-739.89026 -63.617558 1878.6779
-739.15601 -63.626701 1879.0016
-738.37561 -63.631882 1879.2084
-737.66174 -63.642818 1879.5851
-736.85602 -63.64584 1879.7281
-736.12518 -63.655346 1880.0629
-735.33521 -63.659756 1880.2469
-734.59918 -63.668858 1880.5696
-733.85321 -63.677109 1880.8673
-733.11035 -63.685665 1881.1738
-732.31189 -63.689392 1881.3378
-731.55634 -63.696869 1881.6127
-730.7973 -63.704063 1881.879
-730.02362 -63.709995 1882.1083
-729.25616 -63.716484 1882.3539
-728.50977 -63.724827 1882.6544
-727.74054 -63.731201 1882.8966
-727.00049 -63.740139 1883.2147
-726.19592 -63.743435 1883.3662
-725.44189 -63.75119 1883.6493
-724.67346 -63.757687 1883.8954
-723.92328 -63.765808 1884.1895
-723.14569 -63.771542 1884.4128
-722.42786 -63.782558 1884.7925
-721.67828 -63.790787 1885.0898
-720.94983 -63.800919 1885.4431
-720.13348 -63.803284 1885.5673
-719.38837 -63.811966 1885.8781
-718.62537 -63.819092 1886.1428
-717.85461 -63.825546 1886.3876
-717.06122 -63.82999 1886.5731
-716.31879 -63.838993 1886.8934
-715.55981 -63.846542 1887.1708
-714.80151 -63.854172 1887.4503
-714.01941 -63.859692 1887.6677
-713.27148 -63.868282 1887.976
-712.50641 -63.875355 1888.2393
-711.76526 -63.884594 1888.5665
-710.96375 -63.888435 1888.7344
-710.22113 -63.897579 1889.059
-709.42047 -63.90152 1889.2297
-708.6745 -63.910408 1889.5466
-707.87878 -63.914822 1889.7314
-707.12604 -63.92313 1890.0315
-706.3631 -63.930542 1890.3047
-705.60931 -63.938797 1890.6031
-704.81238 -63.94315 1890.7863
-704.06128 -63.951694 1891.093
-703.26611 -63.956245 1891.282
-702.54352 -63.967415 1891.6665
-701.78009 -63.974892 1891.942
-701.02167 -63.982834 1892.2313
-700.24982 -63.989578 1892.485
-699.4856 -63.997032 1892.7599
-698.69708 -64.002296 1892.9697
-697.96564 -64.012794 1893.3345
-697.2146 -64.021515 1893.6469
-696.46088 -64.030022 1893.9528
-695.67371 -64.035461 1894.1681
-694.9101 -64.043098 1894.4482
-694.1037 -64.046791 1894.6119
-693.35803 -64.056114 1894.9419
-692.58362 -64.062798 1895.1942
-691.81598 -64.070122 1895.4652
-691.05023 -64.077652 1895.7423
-690.26202 -64.083107 1895.958
-689.48145 -64.089294 1896.1953
-688.71582 -64.096886 1896.4742
-687.93011 -64.102623 1896.6984
-687.17889 -64.111588 1897.0181
-686.41486 -64.119392 1897.3032
-685.65649 -64.127731 1897.6045
-684.88019 -64.134422 1897.8566
-684.11292 -64.141968 1898.1344
-683.35486 -64.150406 1898.4385
-682.56195 -64.155594 1898.6461
-681.77411 -64.161263 1898.8684
-681.01605 -64.169762 1899.1741
-680.26721 -64.179146 1899.5062
-679.48846 -64.18573 1899.7554
-678.73169 -64.194405 1900.0667
-677.9472 -64.200485 1900.3009
-677.19122 -64.20929 1900.6157
-676.40668 -64.215385 1900.8506
-675.64282 -64.22348 1901.1444
-674.85529 -64.229347 1901.3723
-674.08337 -64.236702 1901.6444
-673.30164 -64.243149 1901.8896
-672.56421 -64.253838 1902.2605
-671.76068 -64.25824 1902.4451
-671.01471 -64.268158 1902.7931
-670.22626 -64.27404 1903.0214
-669.44629 -64.280746 1903.2743
-668.64819 -64.285728 1903.4761
-667.88873 -64.294434 1903.7881
-667.0907 -64.299461 1903.9912
-666.31946 -64.307076 1904.2709
-665.57605 -64.317398 1904.6309
-664.8205 -64.326584 1904.9572
-664.02527 -64.33194 1905.17
-663.2558 -64.339813 1905.4575
-662.46857 -64.345985 1905.6943
-661.68091 -64.352135 1905.9307
-660.86237 -64.355286 1906.0781
-660.11914 -64.365791 1906.4435
-659.33551 -64.372383 1906.693
-658.58344 -64.38208 1907.0342
-657.79846 -64.388573 1907.2808
-657.03632 -64.397324 1907.5941
-656.23895 -64.402641 1907.8058
-655.4812 -64.411873 1908.1333
-654.6922 -64.418053 1908.3705
-653.90906 -64.42482 1908.6251
-653.11481 -64.430511 1908.8479
-652.35986 -64.440094 1909.186
-651.54761 -64.444054 1909.3572
-650.77753 -64.452187 1909.6523
-650.03296 -64.462868 1910.0229
-649.24817 -64.469597 1910.2762
-648.47461 -64.477455 1910.5634
-647.67487 -64.482727 1910.7734
-646.88672 -64.489174 1911.0184
-646.13062 -64.49884 1911.3588
-645.35315 -64.506393 1911.6366
-644.55756 -64.512146 1911.8612
-643.7785 -64.519577 1912.1353
-642.99591 -64.526672 1912.3995
-642.23999 -64.536476 1912.7439
-641.43048 -64.540909 1912.9291
-640.62329 -64.545578 1913.1216
-639.84918 -64.553612 1913.4136
-639.07837 -64.561996 1913.7157
-638.28253 -64.567871 1913.9438
-637.52759 -64.577904 1914.2952
-636.72247 -64.582878 1914.4962
-635.98706 -64.59494 1914.9078
-635.20312 -64.602104 1915.174
-634.41718 -64.609085 1915.4346
-633.61395 -64.614319 1915.6436
-632.86847 -64.625473 1916.0278
-632.04431 -64.628609 1916.1746
-631.29364 -64.639275 1916.5447
-630.49481 -64.645035 1916.769
-629.73236 -64.654541 1917.1047
-628.90253 -64.657166 1917.236
-628.12366 -64.665024 1917.5226
-627.32452 -64.670822 1917.7482
-626.55182 -64.679367 1918.0552
-625.74286 -64.684189 1918.2517
-624.9837 -64.694176 1918.6014
-624.18835 -64.700439 1918.8408
-623.42712 -64.710266 1919.1855
-622.64374 -64.717819 1919.4631
-621.85852 -64.725189 1919.7354
-621.05988 -64.731194 1919.9669
-620.29156 -64.740387 1920.2927
-619.48541 -64.745636 1920.5021
-618.72461 -64.755653 1920.8527
-617.92468 -64.761604 1921.0824
-617.15027 -64.770248 1921.3921
-616.37073 -64.778381 1921.6866
-615.58105 -64.785469 1921.9502
-614.78467 -64.791862 1922.1932
-613.99994 -64.799507 1922.4733
-613.21381 -64.80703 1922.7496
-612.41443 -64.813164 1922.9849
-611.65118 -64.823151 1923.3345
-610.84344 -64.828438 1923.5446
-610.07556 -64.83799 1923.881
-609.26038 -64.842537 1924.0688
-608.47589 -64.850357 1924.3542
-607.70062 -64.859184 1924.6692
-606.92212 -64.867699 1924.9749
-606.13007 -64.874779 1925.2382
-605.36798 -64.885101 1925.5974
-604.56 -64.890518 1925.8113
-603.80841 -64.902031 1926.2056
-602.96271 -64.903427 1926.3
-602.18665 -64.912338 1926.6174
-601.38287 -64.918289 1926.8469
-600.57904 -64.924248 1927.0767
-599.79547 -64.932419 1927.3721
-599.03815 -64.943466 1927.7528
-598.23071 -64.949097 1927.9727
-597.44696 -64.957321 1928.2694
-596.65985 -64.96521 1928.5564
-595.87457 -64.973312 1928.8497
-595.06152 -64.978416 1929.0537
-594.28009 -64.986992 1929.3608
-593.45898 -64.991241 1929.5396
-592.69073 -65.001305 1929.891
-591.89532 -65.008415 1930.1548
-591.08868 -65.014305 1930.3822
-590.32599 -65.025063 1930.754
-589.50598 -65.029533 1930.9392
-588.72821 -65.038666 1931.2629
-587.93549 -65.046188 1931.5386
-587.17249 -65.057022 1931.9127
-586.34326 -65.060547 1932.0696
-585.6001 -65.073639 1932.5107
-584.80688 -65.0812 1932.7876
-584.00159 -65.087433 1933.0249
-583.19116 -65.093132 1933.2462
-582.41254 -65.102379 1933.5732
-581.60596 -65.108536 1933.8081
-580.7984 -65.114601 1934.0405
-579.98895 -65.120476 1934.267
-579.19501 -65.128113 1934.5459
-578.37012 -65.132286 1934.7218
-577.61975 -65.144875 1935.1478
-576.82104 -65.152039 1935.4127
-576.03705 -65.160889 1935.7275
-575.20538 -65.164375 1935.8829
-574.44 -65.175392 1936.262
-573.63953 -65.182442 1936.5234
-572.84534 -65.190247 1936.807
-572.04846 -65.197762 1937.082
-571.23505 -65.2034 1937.3015
-570.45392 -65.212761 1937.6313
-569.63733 -65.218094 1937.8413
-568.8537 -65.227219 1938.1641
-568.05737 -65.234909 1938.4442
-567.27118 -65.243797 1938.7599
-566.46167 -65.250023 1938.9963
-565.68457 -65.26001 1939.3447
-564.87982 -65.26683 1939.5989
-564.10834 -65.277527 1939.9681
-563.30157 -65.284164 1940.2168
-562.52698 -65.294563 1940.577
-561.69208 -65.297981 1940.73
-560.91016 -65.307564 1941.0663
-560.09167 -65.312927 1941.2769
-559.29718 -65.321114 1941.5713
-558.48352 -65.327072 1941.7996
-557.68817 -65.335205 1942.0924
-556.86273 -65.339821 1942.2809
-556.08124 -65.349632 1942.6234
-555.28088 -65.357254 1942.901
-554.5083 -65.368156 1943.2762
-553.68347 -65.37294 1943.4694
-552.90491 -65.383202 1943.8253
-552.08575 -65.38871 1944.0398
-551.29504 -65.397591 1944.3546
-550.51929 -65.408279 1944.7233
-549.70789 -65.414749 1944.9666
-548.91626 -65.423622 1945.2809
-548.07953 -65.427132 1945.4359
-547.29919 -65.437386 1945.7914
-546.47754 -65.442734 1946.0011
-545.70062 -65.453468 1946.3707
-544.89191 -65.460403 1946.6277
-544.10767 -65.470306 1946.9728
-543.25525 -65.472046 1947.0746
-542.48071 -65.48317 1947.4561
-541.67163 -65.490173 1947.7145
-540.87756 -65.499008 1948.0276
-540.07837 -65.507256 1948.3231
-539.27673 -65.515213 1948.6102
-538.46979 -65.522575 1948.8792
-537.68103 -65.532166 1949.2147
-536.867 -65.538712 1949.4596
-536.05078 -65.545006 1949.6968
-535.29108 -65.558243 1950.1406
-534.47144 -65.564171 1950.3669
-533.64117 -65.568825 1950.5553
-532.84912 -65.578178 1950.8835
-532.05188 -65.586945 1951.194
-531.23181 -65.592903 1951.4211
-530.41388 -65.599152 1951.6569
-529.60278 -65.60627 1951.9183
-528.8241 -65.617439 1952.3002
-528.01556 -65.624931 1952.5728
-527.2121 -65.63308 1952.8647
-526.39374 -65.639397 1953.1023
-525.58032 -65.646347 1953.3586
-524.75134 -65.65139 1953.5581
-523.94977 -65.659874 1953.8599
-523.11761 -65.664551 1954.0485
-522.34454 -65.676666 1954.4585
-521.54791 -65.685867 1954.7815
-520.74719 -65.69458 1955.09
-519.92004 -65.699982 1955.2998
-519.13922 -65.711266 1955.6849
-518.33691 -65.719864 1955.9897
-517.53302 -65.728287 1956.2896
-516.72302 -65.73597 1956.5673
-515.91632 -65.744095 1956.858
-515.11487 -65.752922 1957.1696
-514.27844 -65.757301 1957.3489
-513.47217 -65.765564 1957.6436
-512.65717 -65.772728 1957.9058
-511.85938 -65.782143 1958.2346
-511.03195 -65.787766 1958.4507
-510.23154 -65.79689 1958.7709
-509.40994 -65.803314 1959.0109
-508.60947 -65.812492 1959.3325
-507.77576 -65.817398 1959.5271
-506.99255 -65.828873 1959.9171
-506.1904 -65.837929 1960.2351
-505.37885 -65.845795 1960.5175
-504.56412 -65.853264 1960.7883
-503.74939 -65.860771 1961.0599
-502.95285 -65.870682 1961.4034
-502.12527 -65.876556 1961.6263
-501.33258 -65.887032 1961.9866
-500.49182 -65.891228 1962.1593
-499.69379 -65.901062 1962.5002
-498.86108 -65.906357 1962.7059
-498.07236 -65.917488 1963.0853
-497.26425 -65.926102 1963.3894
-496.4711 -65.936714 1963.7535
-495.64755 -65.943329 1963.9982
-494.8353 -65.951485 1964.2886
-493.99631 -65.956085 1964.4733
-493.17972 -65.963707 1964.7478
-492.35715 -65.970551 1964.9993
-491.5372 -65.977768 1965.2618
-490.73624 -65.987572 1965.6011
-489.9024 -65.992973 1965.8094
-489.10016 -66.00267 1966.1455
-488.27579 -66.009407 1966.3936
-487.49625 -66.022232 1966.8229
-486.67667 -66.029686 1967.0919
-485.87762 -66.039948 1967.4448
-485.01743 -66.041924 1967.5508
-484.22171 -66.052704 1967.9189
-483.40933 -66.061249 1968.2205
-482.59012 -66.068886 1968.4949
-481.76425 -66.075638 1968.7429
-797.66223 -62.235264 1858.4965
-797.0025 -62.248753 1858.951
-796.31165 -62.259838 1859.3337
-795.55652 -62.265915 1859.567
-794.82629 -62.27396 1859.859
-794.11554 -62.283554 1860.1973
-793.40833 -62.293434 1860.5443
-792.6524 -62.299519 1860.778
-791.97028 -62.31142 1861.1852
-791.18591 -62.315292 1861.3529
-790.43005 -62.321423 1861.588
-789.65674 -62.326183 1861.7823
-788.92841 -62.334515 1862.0833
-788.1554 -62.339336 1862.2793
-787.39789 -62.345387 1862.5123
-786.67102 -62.353882 1862.8184
-785.95428 -62.363209 1863.149
-785.18976 -62.368752 1863.3668
-784.44861 -62.376152 1863.6405
-783.68005 -62.381409 1863.8497
-782.93005 -62.388149 1864.1035
-782.15515 -62.392914 1864.2983
-781.44531 -62.402897 1864.6489
-780.67993 -62.408447 1864.8673
-779.94672 -62.416592 1865.1632
-779.18799 -62.42271 1865.3986
-778.47589 -62.432587 1865.7462
-777.70428 -62.437702 1865.9517
-776.97498 -62.446232 1866.2592
-776.19879 -62.451004 1866.4546
-775.47528 -62.460037 1866.7771
-774.69061 -62.464153 1866.9529
-773.94763 -62.471638 1867.2295
-773.16785 -62.476177 1867.4177
-772.4516 -62.485867 1867.7601
-771.67303 -62.490524 1867.9523
-770.97437 -62.501678 1868.3385
-770.17511 -62.504681 1868.4813
-769.47095 -62.515427 1868.8553
-768.70337 -62.521038 1869.076
-767.96088 -62.528702 1869.3582
-767.1651 -62.53204 1869.5111
-766.46399 -62.543118 1869.8951
-765.65631 -62.545506 1870.0197
-764.94824 -62.556046 1870.3879
-764.15778 -62.559872 1870.5554
-763.42218 -62.568199 1870.8575
-762.65338 -62.573822 1871.0789
-761.91248 -62.581749 1871.369
-761.14606 -62.587589 1871.597
-760.40247 -62.595333 1871.8818
-759.64325 -62.601799 1872.1285
-758.92389 -62.61158 1872.4742
-758.14313 -62.616299 1872.6688
-757.41003 -62.624977 1872.9816
-756.64093 -62.630692 1873.2059
-755.89172 -62.638077 1873.4802
-755.1366 -62.644974 1873.74
-754.38263 -62.651993 1874.0033
-753.61316 -62.657738 1874.2286
-752.87219 -62.665871 1874.5254
-752.11725 -62.672852 1874.7877
-751.3772 -62.681091 1875.0879
-750.57953 -62.684547 1875.2448
-749.8678 -62.69519 1875.6167
-749.08752 -62.700119 1875.8179
-748.32983 -62.706955 1876.0759
-747.55804 -62.712624 1876.2992
-746.8302 -62.722 1876.6333
-746.04163 -62.726284 1876.8152
-745.32532 -62.736668 1877.1797
-744.54816 -62.741947 1877.3912
-743.81543 -62.750988 1877.7156
-743.03455 -62.755974 1877.9186
-742.28741 -62.76384 1878.2078
-741.50677 -62.768875 1878.4122
-740.78137 -62.77861 1878.7574
-739.98053 -62.781971 1878.9119
-739.26544 -62.792618 1879.2843
-738.47217 -62.796642 1879.4586
-737.73639 -62.80558 1879.7799
-736.94629 -62.809902 1879.9631
-736.22028 -62.819691 1880.3103
-735.44507 -62.825317 1880.5326
-734.703 -62.83379 1880.8401
-733.95453 -62.841732 1881.1317
-733.18445 -62.847836 1881.3685
-732.40204 -62.852905 1881.5742
-731.65479 -62.860996 1881.8706
-730.85309 -62.864429 1882.0273
-730.10608 -62.872578 1882.3254
-729.33539 -62.878712 1882.563
-728.59637 -62.887592 1882.8831
-727.81659 -62.892967 1883.098
-727.07043 -62.90126 1883.4005
-726.27423 -62.905254 1883.5741
-725.53827 -62.914467 1883.9042
-724.76434 -62.920414 1884.1362
-724.02942 -62.929768 1884.4706
-723.27979 -62.937855 1884.767
-722.52374 -62.945408 1885.0472
-721.76312 -62.952576 1885.3162
-721.02545 -62.961769 1885.6458
-720.22363 -62.965385 1885.8081
-719.47302 -62.97348 1886.1049
-718.70123 -62.979736 1886.3466
-717.93268 -62.986305 1886.5974
-717.14618 -62.991306 1886.8015
-716.4151 -63.00119 1887.1519
-715.63928 -63.007168 1887.3853
-714.88513 -63.015068 1887.676
-714.12634 -63.022575 1887.9553
-713.36377 -63.029762 1888.225
-712.5838 -63.035439 1888.4492
-711.84332 -63.044617 1888.7786
-711.04858 -63.049011 1888.9646
-710.29669 -63.057224 1889.2649
-709.53687 -63.064743 1889.5446
-708.76691 -63.071384 1889.798
-707.98395 -63.076889 1890.0171
-707.21826 -63.083939 1890.2827
-706.44153 -63.090019 1890.5194
-705.68158 -63.097626 1890.8016
-704.91022 -63.104225 1891.0538
-704.16998 -63.113632 1891.39
-703.41101 -63.121376 1891.6765
-702.63306 -63.127441 1891.9126
-701.86096 -63.134037 1892.1648
-701.1012 -63.141777 1892.451
-700.34882 -63.150188 1892.7577
-699.57068 -63.156303 1892.9952
-698.80487 -63.163536 1893.2666
-698.04474 -63.171314 1893.5541
-697.31226 -63.181614 1893.9171
-696.53271 -63.187664 1894.1531
-695.76825 -63.195103 1894.4304
-695.00092 -63.202305 1894.7007
-694.21613 -63.207928 1894.9238
-693.42719 -63.213192 1895.1361
-692.66779 -63.221161 1895.4294
-691.8963 -63.22805 1895.6904
-691.12238 -63.23473 1895.9451
-690.34528 -63.241138 1896.1917
-689.57202 -63.247921 1896.4495
-688.78491 -63.253441 1896.6694
-688.02301 -63.261303 1896.9596
-687.25183 -63.268326 1897.2246
-686.5011 -63.277245 1897.5466
-685.74976 -63.286137 1897.8676
-684.97327 -63.292725 1898.1196
-684.19397 -63.299065 1898.3643
-683.45929 -63.309566 1898.7335
-682.64984 -63.31316 1898.8958
-681.91748 -63.323917 1899.2727
-681.1087 -63.327595 1899.4376
-680.36609 -63.337448 1899.7875
-679.56903 -63.342243 1899.9858
-678.81665 -63.351223 1900.3096
-678.02045 -63.356136 1900.5114
-677.25629 -63.364059 1900.8033
-676.4967 -63.372433 1901.1089
-675.7262 -63.379799 1901.3843
-674.95032 -63.386681 1901.6451
-674.17615 -63.393742 1901.9114
-673.40991 -63.401569 1902.2007
-672.64423 -63.409466 1902.4921
-671.86298 -63.415916 1902.74
-671.1012 -63.424225 1903.0436
-670.3255 -63.431236 1903.3083
-669.53168 -63.436554 1903.5222
-668.72809 -63.440956 1903.7087
-667.98389 -63.451012 1904.0648
-667.18335 -63.455727 1904.2607
-666.40967 -63.46302 1904.5339
-665.63855 -63.470581 1904.8152
-664.89307 -63.480606 1905.1703
-664.11011 -63.487072 1905.4187
-663.32867 -63.493706 1905.6721
-662.5321 -63.498898 1905.8823
-661.76276 -63.506733 1906.1716
-660.94635 -63.510056 1906.3257
-660.19568 -63.519714 1906.6699
-659.44177 -63.529087 1907.0055
-658.66754 -63.536526 1907.283
-657.87073 -63.541798 1907.4956
-657.11401 -63.550964 1907.825
-656.31287 -63.555855 1908.026
-655.56415 -63.565845 1908.3801
-654.75629 -63.570118 1908.5626
-653.9823 -63.577694 1908.8442
-653.19604 -63.584095 1909.0907
-652.43481 -63.592957 1909.4108
-651.64886 -63.599426 1909.6593
-650.85883 -63.605511 1909.8961
-650.07654 -63.612377 1910.1565
-649.30084 -63.619904 1910.4366
-648.54004 -63.628918 1910.7614
-647.75769 -63.635841 1911.0233
-646.94019 -63.639309 1911.1816
-646.18939 -63.649376 1911.538
-645.42163 -63.657791 1911.8448
-644.63855 -63.664715 1912.1067
-643.86462 -63.672565 1912.3966
-643.06433 -63.677822 1912.6084
-642.29761 -63.686424 1912.9208
-641.4895 -63.690941 1913.1106
-640.72394 -63.699696 1913.4275
-639.9259 -63.70525 1913.6483
-639.15662 -63.713676 1913.9554
-638.36969 -63.720375 1914.2104
-637.61633 -63.730442 1914.5668
-636.82849 -63.737095 1914.8204
-636.05792 -63.745483 1915.1265
-635.2616 -63.75132 1915.3556
-634.49579 -63.760242 1915.6775
-633.68652 -63.764812 1915.8687
-632.9339 -63.775097 1916.2314
-632.12506 -63.779739 1916.4248
-631.35278 -63.788086 1916.7295
-630.56744 -63.795151 1916.9954
-629.7807 -63.802074 1917.2573
-628.97772 -63.807384 1917.4706
-628.20459 -63.815739 1917.7753
-627.38043 -63.818924 1917.9247
-626.60101 -63.826675 1918.2113
-625.82837 -63.835136 1918.5193
-625.05988 -63.844055 1918.8408
-624.27277 -63.851086 1919.1058
-623.49878 -63.859482 1919.4117
-622.69135 -63.864479 1919.6155
-621.91815 -63.872993 1919.9249
-621.12897 -63.879894 1920.1859
-620.35126 -63.888004 1920.4832
-619.56256 -63.894993 1920.7468
-618.76666 -63.901264 1920.9888
-618.01587 -63.912216 1921.3716
-617.23468 -63.920052 1921.6604
-616.46002 -63.928589 1921.9705
-615.64478 -63.932934 1922.1545
-614.87268 -63.94178 1922.4739
-614.0769 -63.948181 1922.7197
-613.28082 -63.954578 1922.9653
-612.49023 -63.961559 1923.2284
-611.73431 -63.972187 1923.6014
-610.91992 -63.976723 1923.791
-610.13837 -63.984718 1924.0847
-609.33948 -63.990925 1924.3243
-608.57672 -64.000938 1924.6787
-607.75201 -64.004463 1924.8378
-606.97888 -64.013428 1925.1605
-606.19324 -64.021103 1925.4445
-605.43756 -64.031967 1925.8243
-604.62744 -64.037094 1926.0317
-603.86273 -64.047066 1926.3845
-603.03857 -64.050743 1926.5481
-602.25958 -64.059235 1926.8564
-601.45044 -64.064537 1927.0691
-600.66949 -64.072868 1927.3727
-599.89465 -64.081879 1927.6964
-599.09668 -64.08844 1927.9467
-598.29657 -64.094795 1928.1907
-597.51239 -64.102875 1928.4865
-596.72321 -64.110435 1928.7668
-595.91956 -64.116463 1929.0009
-595.13458 -64.124527 1929.2963
-594.33752 -64.13131 1929.5531
-593.54004 -64.138069 1929.809
-592.74725 -64.145348 1930.0808
-591.95721 -64.152954 1930.3622
-591.16571 -64.160423 1930.6395
-590.3819 -64.168755 1930.9427
-589.57928 -64.175056 1931.1849
-588.7804 -64.181786 1931.4401
-588.0166 -64.192368 1931.8109
-587.23889 -64.201462 1932.1368
-586.44507 -64.208817 1932.4108
-585.67206 -64.218475 1932.7538
-584.85126 -64.222908 1932.9398
-584.07196 -64.231941 1933.2639
-583.25574 -64.236923 1933.4659
-582.47473 -64.245804 1933.7855
-581.65997 -64.250984 1933.9937
-580.86566 -64.25843 1934.2701
-580.06488 -64.265198 1934.526
-579.26349 -64.271912 1934.7803
-578.4505 -64.277359 1934.9965
-577.69513 -64.289238 1935.4061
-576.86823 -64.293182 1935.5768
-576.10376 -64.3041 1935.9575
-575.29462 -64.310066 1936.189
-574.49445 -64.317055 1936.4514
-573.68372 -64.322876 1936.6785
-572.91101 -64.332985 1937.0349
-572.09802 -64.3386 1937.2557
-571.2998 -64.345886 1937.527
-570.52332 -64.355659 1937.8729
-569.71362 -64.36171 1938.1068
-568.8988 -64.367188 1938.3236
-568.1048 -64.375053 1938.6121
-567.32379 -64.384415 1938.9457
-566.54297 -64.393829 1939.2808
-565.75287 -64.402206 1939.5846
-564.93439 -64.407387 1939.7922
-564.14709 -64.416145 1940.1073
-563.35303 -64.424149 1940.3999
-562.58307 -64.434937 1940.7764
-561.75195 -64.438751 1940.9425
-560.96832 -64.448029 1941.2734
-560.15186 -64.45356 1941.4913
-559.36041 -64.461998 1941.7968
-558.54468 -64.467651 1942.0183
-557.74182 -64.474815 1942.2852
-556.93811 -64.481903 1942.5499
-556.14673 -64.490433 1942.8582
-555.35834 -64.499352 1943.1779
-554.57111 -64.50843 1943.5023
-553.74811 -64.513367 1943.7023
-552.95691 -64.522041 1944.0143
-552.15326 -64.529274 1944.2833
-551.35376 -64.537025 1944.5677
-550.57977 -64.547783 1944.9429
-549.77179 -64.554596 1945.199
-548.96014 -64.560997 1945.4424
-548.14398 -64.566879 1945.6707
-547.34448 -64.574745 1945.9584
-546.52893 -64.58075 1946.1899
-545.74512 -64.590538 1946.5354
-544.94745 -64.598701 1946.8322
-544.16675 -64.60891 1947.1903
-543.34503 -64.614273 1947.4025
-542.54425 -64.622147 1947.6902
-541.7392 -64.629547 1947.9635
-540.93781 -64.63739 1948.2506
-540.12787 -64.644249 1948.5077
-539.33868 -64.653618 1948.8402
-538.52216 -64.659737 1949.075
-537.73779 -64.669739 1949.4266
-536.93054 -64.677025 1949.6964
-536.11945 -64.683861 1949.9528
-535.33685 -64.694168 1950.3135
-534.51849 -64.700188 1950.5449
-533.71967 -64.708588 1950.8481
-532.90265 -64.714806 1951.0857
-532.10675 -64.72361 1951.4011
-531.28601 -64.729431 1951.6263
-530.48755 -64.737984 1951.9342
-529.69159 -64.746864 1952.2516
-528.88177 -64.754082 1952.5192
-528.07617 -64.761848 1952.8029
-527.27197 -64.769814 1953.0927
-526.45227 -64.775887 1953.3256
-525.63739 -64.782593 1953.5771
-524.82104 -64.789124 1953.8236
-523.9967 -64.794693 1954.0411
-523.19104 -64.802597 1954.3287
-522.41351 -64.814018 1954.7227
-521.60187 -64.821236 1954.9897
-520.78674 -64.828049 1955.2445
-519.97107 -64.834824 1955.4979
-519.17755 -64.844383 1955.8354
-518.38715 -64.854355 1956.1855
-517.57477 -64.861618 1956.4536
-516.78064 -64.871185 1956.7915
-515.97351 -64.879166 1957.0811
-515.17004 -64.887627 1957.3854
-514.32996 -64.891502 1957.5513
-513.53937 -64.901642 1957.906
-512.71655 -64.907738 1958.1388
-511.91513 -64.91658 1958.4541
-511.0896 -64.922379 1958.6779
-510.29068 -64.93158 1959.0043
-509.4653 -64.937447 1959.2299
-508.67117 -64.947334 1959.5765
-507.85199 -64.954041 1959.8274
-507.05225 -64.963257 1960.1542
-506.24103 -64.971046 1960.4375
-505.44171 -64.980385 1960.7677
-504.62653 -64.987717 1961.0372
-503.79755 -64.993294 1961.2538
-502.99545 -65.002357 1961.5757
-502.18561 -65.01046 1961.8684
-501.38315 -65.019547 1962.1907
-500.54941 -65.024605 1962.3915
-499.73633 -65.032356 1962.6736
-498.94037 -65.042381 1963.024
-498.14655 -65.052727 1963.384
-497.32343 -65.059258 1963.6293
-496.52249 -65.068733 1963.963
-495.70172 -65.075645 1964.2194
-494.87228 -65.081429 1964.4417
-494.06094 -65.089615 1964.7366
-493.23779 -65.096283 1964.9855
-492.41611 -65.103165 1965.2408
-491.60114 -65.11097 1965.5238
-490.77609 -65.117455 1965.7671
-489.94839 -65.123604 1966.0004
-489.1438 -65.132874 1966.3274
-488.33002 -65.14093 1966.6182
-487.54874 -65.153374 1967.041
-486.72476 -65.160141 1967.2926
-485.92383 -65.170036 1967.6383
-485.07639 -65.173706 1967.7963
-484.28061 -65.184349 1968.1647
-483.44525 -65.18969 1968.3729
-482.64267 -65.199486 1968.7157
-481.82455 -65.207199 1968.9957
-481.01208 -65.215721 1969.2998
-797.75946 -61.406956 1858.7269
-797.08765 -61.41935 1859.1537
-796.38953 -61.429729 1859.5197
-795.63824 -61.43602 1859.7621
-794.95538 -61.447624 1860.1652
-794.24292 -61.456959 1860.4996
-793.54962 -61.467796 1860.8798
-792.77667 -61.472485 1861.0737
-792.04944 -61.480736 1861.3754
-791.28674 -61.486237 1861.5942
-790.54431 -61.493336 1861.8612
-789.75092 -61.496483 1862.0085
-789.03265 -61.505493 1862.3335
-788.25586 -61.509953 1862.5209
-787.50824 -61.516697 1862.7773
-786.73499 -61.521465 1862.9739
-786.04346 -61.532635 1863.3645
-785.27643 -61.537914 1863.5767
-784.53699 -61.545361 1863.8547
-783.77679 -61.551201 1864.084
-783.02606 -61.557804 1864.3363
-782.2489 -61.562328 1864.526
-781.53101 -61.571545 1864.8574
-780.76849 -61.577259 1865.0831
-780.05151 -61.586575 1865.418
-779.27203 -61.590984 1865.6041
-778.55444 -61.600288 1865.9386
-777.78912 -61.605835 1866.1594
-777.05951 -61.614231 1866.4664
-776.28571 -61.619137 1866.6677
-775.55231 -61.627258 1866.9667
-774.77356 -61.631794 1867.157
-774.0401 -61.639954 1867.4568
-773.26324 -61.644665 1867.6525
-772.50427 -61.650818 1867.8918
-771.77203 -61.659122 1868.1963
-771.06073 -61.669113 1868.552
-770.27405 -61.673088 1868.7256
-769.5517 -61.682243 1869.0559
-768.78595 -61.68792 1869.2811
-768.03595 -61.694889 1869.5453
-767.26556 -61.700226 1869.7601
-766.54761 -61.709805 1870.1034
-765.75641 -61.713497 1870.2686
-765.02515 -61.722034 1870.5804
-764.25519 -61.727459 1870.7981
-763.51843 -61.735584 1871.0977
-762.74701 -61.740929 1871.3129
-762.02209 -61.75005 1871.6427
-761.24915 -61.755295 1871.855
-760.49017 -61.761692 1872.1022
-759.72522 -61.767609 1872.335
-759.00842 -61.777466 1872.6871
-758.21802 -61.781349 1872.8583
-757.48511 -61.789921 1873.1716
-756.70105 -61.794342 1873.3593
-755.97791 -61.803761 1873.6981
-755.21021 -61.809547 1873.9271
-754.4632 -61.817043 1874.2079
-753.67743 -61.821381 1874.3929
-752.96014 -61.831341 1874.7488
-752.1991 -61.837742 1874.9963
-751.43781 -61.844124 1875.2435
-750.67017 -61.850014 1875.4757
-749.94965 -61.859787 1875.8258
-749.15967 -61.863857 1876.0029
-748.41992 -61.872093 1876.3063
-747.67297 -61.879745 1876.5922
-746.91547 -61.886539 1876.8521
-746.15314 -61.892956 1877.1003
-745.42224 -61.901989 1877.4282
-744.65332 -61.907887 1877.6609
-743.89514 -61.9147 1877.9213
-743.1131 -61.919533 1878.1217
-742.37415 -61.927979 1878.4318
-741.60571 -61.933971 1878.6675
-740.84351 -61.940502 1878.9196
-740.0741 -61.946445 1879.1538
-739.32227 -61.953884 1879.4333
-738.55072 -61.959679 1879.6631
-737.8197 -61.968895 1879.9967
-737.04767 -61.974674 1880.2262
-736.31055 -61.983421 1880.5455
-735.54492 -61.989784 1880.7926
-734.79187 -61.997219 1881.0721
-734.02484 -62.003494 1881.3165
-733.25476 -62.009518 1881.5536
-732.46783 -62.014137 1881.7478
-731.71985 -62.022064 1882.0426
-730.91602 -62.025272 1882.194
-730.17554 -62.033878 1882.5092
-729.42352 -62.041515 1882.7952
-728.685 -62.050327 1883.1167
-727.88245 -62.053692 1883.2731
-727.13116 -62.061451 1883.5626
-726.36212 -62.067699 1883.8066
-725.63782 -62.077797 1884.1672
-724.84479 -62.082035 1884.3501
-724.08685 -62.089287 1884.6246
-723.34729 -62.098141 1884.9475
-722.60352 -62.106651 1885.2601
-721.83771 -62.113285 1885.5157
-721.10321 -62.122635 1885.8539
-720.3136 -62.127247 1886.0483
-719.56134 -62.135109 1886.3412
-718.75604 -62.138393 1886.4952
-718.00983 -62.146801 1886.8049
-717.21637 -62.151142 1886.991
-716.48096 -62.160522 1887.3302
-715.71857 -62.167583 1887.599
-714.96521 -62.175457 1887.8923
-714.2204 -62.184082 1888.2087
-713.43951 -62.189583 1888.4302
-712.68042 -62.197014 1888.7101
-711.92438 -62.20472 1888.9985
-711.15552 -62.211323 1889.2534
-710.38104 -62.217453 1889.494
-709.59448 -62.222534 1889.7029
-708.84436 -62.230835 1890.0093
-708.09094 -62.238857 1890.3075
-707.31079 -62.24456 1890.535
-706.51947 -62.249279 1890.7329
-705.76764 -62.257504 1891.0372
-705.01068 -62.265289 1891.3281
-704.25494 -62.273201 1891.623
-703.47748 -62.279217 1891.8601
-702.72272 -62.287254 1892.1589
-701.95801 -62.29443 1892.4313
-701.18103 -62.300545 1892.6714
-700.42773 -62.308765 1892.9758
-699.64978 -62.314819 1893.2141
-698.89362 -62.322823 1893.512
-698.12897 -62.330093 1893.7874
-697.39581 -62.340206 1894.149
-696.59607 -62.344376 1894.3302
-695.8537 -62.353699 1894.6681
-695.06226 -62.358646 1894.8729
-694.30115 -62.366325 1895.1608
-693.51331 -62.371624 1895.3763
-692.74792 -62.37896 1895.6537
-691.9729 -62.385445 1895.9053
-691.2157 -62.393547 1896.2061
-690.40704 -62.397026 1896.3663
-689.64484 -62.404724 1896.6548
-688.87537 -62.41177 1896.9236
-688.12347 -62.420433 1897.2415
-687.33801 -62.426075 1897.4674
-686.59314 -62.435425 1897.806
-685.81519 -62.441772 1898.0536
-685.05939 -62.450169 1898.3634
-684.27362 -62.455845 1898.5903
-683.50854 -62.463425 1898.8754
-682.72491 -62.469334 1899.1096
-681.97192 -62.478065 1899.4294
-681.17871 -62.483131 1899.6379
-680.41791 -62.491177 1899.9371
-679.64459 -62.498096 1900.202
-678.90601 -62.508236 1900.5648
-678.08374 -62.510689 1900.6938
-677.33502 -62.519928 1901.0294
-676.55176 -62.526001 1901.2686
-675.80145 -62.535149 1901.6012
-675.02008 -62.541431 1901.8468
-674.23773 -62.547649 1902.0902
-673.46149 -62.554447 1902.3514
-672.72284 -62.564758 1902.7195
-671.93274 -62.570301 1902.9426
-671.17389 -62.578781 1903.2549
-670.39673 -62.58556 1903.5156
-669.61206 -62.591671 1903.7559
-668.78949 -62.594234 1903.8884
-668.0517 -62.604763 1904.2631
-667.27759 -62.611912 1904.5348
-666.47711 -62.6166 1904.7318
-665.73114 -62.626423 1905.0851
-664.95374 -62.63332 1905.3492
-664.16437 -62.639103 1905.5796
-663.4024 -62.647484 1905.889
-662.61292 -62.653294 1906.1201
-661.82281 -62.65905 1906.3497
-661.0343 -62.664982 1906.5845
-660.26703 -62.672947 1906.8812
-659.48639 -62.679653 1907.1395
-658.73309 -62.688984 1907.4778
-657.94458 -62.694988 1907.715
-657.17749 -62.703049 1908.0145
-656.41284 -62.711369 1908.3219
-655.61676 -62.716698 1908.5385
-654.85858 -62.725674 1908.8658
-654.06244 -62.73103 1909.0833
-653.27753 -62.737488 1909.3339
-652.49176 -62.743881 1909.5828
-651.7215 -62.751781 1909.8773
-650.95636 -62.760193 1910.1877
-650.17645 -62.767204 1910.4553
-649.38025 -62.772663 1910.6755
-648.60767 -62.780422 1910.9659
-647.81799 -62.786541 1911.2063
-647.05756 -62.795517 1911.5338
-646.26892 -62.801773 1911.7784
-645.50543 -62.810501 1912.0983
-644.71899 -62.817013 1912.3507
-643.95764 -62.825989 1912.678
-643.15857 -62.831306 1912.8939
-642.37109 -62.837776 1913.1451
-641.59033 -62.844913 1913.4165
-640.82263 -62.853359 1913.7277
-640.01801 -62.858196 1913.9291
-639.2467 -62.866322 1914.2305
-638.43378 -62.870388 1914.4082
-637.698 -62.882053 1914.8175
-636.8844 -62.886078 1914.9939
-636.12787 -62.895756 1915.3427
-635.32617 -62.900982 1915.5558
-634.5686 -62.910606 1915.9027
-633.77466 -62.916637 1916.1404
-632.99164 -62.923775 1916.4116
-632.19403 -62.929482 1916.6394
-631.41876 -62.937428 1916.9353
-630.63531 -62.944584 1917.207
-629.84851 -62.951424 1917.4691
-629.03534 -62.955647 1917.6516
-628.25098 -62.962765 1917.9222
-627.47656 -62.970901 1918.2239
-626.68976 -62.977818 1918.4883
-625.90021 -62.984482 1918.7449
-625.12524 -62.992634 1919.047
-624.33374 -62.999126 1919.2986
-623.56287 -63.00774 1919.6146
-622.77954 -63.015106 1919.8927
-621.98523 -63.021385 1920.1376
-621.17902 -63.026474 1920.3462
-620.41193 -63.035549 1920.6764
-619.64758 -63.044933 1921.016
-618.85352 -63.051319 1921.2639
-618.06042 -63.057812 1921.5155
-617.30896 -63.068584 1921.8972
-616.52368 -63.075932 1922.1746
-615.72394 -63.081814 1922.4072
-614.95465 -63.090836 1922.7357
-614.13104 -63.094311 1922.8949
-613.36066 -63.103264 1923.2212
-612.57068 -63.110226 1923.4867
-611.80847 -63.120075 1923.8403
-610.99213 -63.124348 1924.0239
-610.22302 -63.133537 1924.3573
-609.409 -63.1381 1924.5494
-608.62738 -63.146019 1924.8442
-607.83038 -63.152378 1925.0914
-607.05493 -63.161003 1925.4075
-606.23749 -63.165268 1925.5906
-605.46173 -63.173897 1925.9067
-604.69928 -63.183945 1926.2662
-603.93048 -63.193352 1926.6062
-603.11249 -63.197639 1926.7899
-602.32208 -63.204819 1927.062
-601.50574 -63.209309 1927.2518
-600.75043 -63.220234 1927.6379
-599.96112 -63.227604 1927.9156
-599.17834 -63.235691 1928.2152
-598.38635 -63.242825 1928.4856
-597.59039 -63.24955 1928.7437
-596.78381 -63.255188 1928.9684
-595.98462 -63.261623 1929.2174
-595.21527 -63.271233 1929.5634
-594.40051 -63.276051 1929.7631
-593.62738 -63.285328 1930.0986
-592.81677 -63.290615 1930.3127
-592.01971 -63.297379 1930.5717
-591.23364 -63.305336 1930.8671
-590.44604 -63.313152 1931.1581
-589.64734 -63.319805 1931.4135
-588.86719 -63.328465 1931.7303
-588.08173 -63.336586 1932.0305
-587.31573 -63.346825 1932.3955
-586.50629 -63.352398 1932.618
-585.73004 -63.361591 1932.9508
-584.9278 -63.367989 1933.1985
-584.15106 -63.377182 1933.5314
-583.33179 -63.381775 1933.7239
-582.54346 -63.389744 1934.0193
-581.7262 -63.394592 1934.2195
-580.94086 -63.402935 1934.5264
-580.12775 -63.408272 1934.7413
-579.33203 -63.415524 1935.015
-578.54242 -63.423473 1935.3097
-577.75275 -63.431442 1935.605
-576.95447 -63.43848 1935.8719
-576.16699 -63.446735 1936.1758
-575.37836 -63.454887 1936.4767
-574.56262 -63.460072 1936.6869
-573.7605 -63.466778 1936.9435
-572.95679 -63.473324 1937.1953
-572.16919 -63.481686 1937.5024
-571.36304 -63.48801 1937.7473
-570.5918 -63.498245 1938.1115
-569.77649 -63.50359 1938.3264
-569.00592 -63.513958 1938.6946
-568.19489 -63.519821 1938.9254
-567.40692 -63.528286 1939.2356
-566.59607 -63.534214 1939.4681
-565.80286 -63.542149 1939.762
-564.99091 -63.547989 1939.9919
-564.22247 -63.558758 1940.3723
-563.42743 -63.566566 1940.6621
-562.64465 -63.575779 1940.9949
-561.83655 -63.582153 1941.2408
-561.04193 -63.590069 1941.5341
-560.22052 -63.594975 1941.7352
-559.42346 -63.602661 1942.0214
-558.6098 -63.608486 1942.2505
-557.8172 -63.61673 1942.5535
-557.02386 -63.62492 1942.8549
-556.21808 -63.631714 1943.1134
-555.4198 -63.639378 1943.3987
-554.60858 -63.645596 1943.6396
-553.83417 -63.656055 1944.0101
-553.04193 -63.664497 1944.3191
-552.24976 -63.672981 1944.629
-551.42853 -63.678123 1944.8373
-550.61487 -63.68417 1945.0728
-549.82977 -63.693546 1945.41
-549.03979 -63.702374 1945.7306
-548.2215 -63.707954 1945.9518
-547.40234 -63.713444 1946.1702
-546.60889 -63.721951 1946.4807
-545.82611 -63.731735 1946.8303
-544.99658 -63.736073 1947.0135
-544.22443 -63.747158 1947.4027
-543.41382 -63.753757 1947.6549
-542.61365 -63.761608 1947.9453
-541.80542 -63.768536 1948.2075
-541.00427 -63.776329 1948.4961
-540.20245 -63.784061 1948.7827
-539.40137 -63.791904 1949.0728
-538.5976 -63.799458 1949.3539
-537.78888 -63.806454 1949.6178
-537.00714 -63.816673 1949.9803
-536.1908 -63.822811 1950.2181
-535.36615 -63.82798 1950.4263
-534.57373 -63.837009 1950.7523
-533.79474 -63.847687 1951.1287
-532.97229 -63.853188 1951.3467
-532.15668 -63.859528 1951.5905
-531.33673 -63.865356 1951.8186
-530.55353 -63.875645 1952.183
-529.73456 -63.881649 1952.4163
-528.94116 -63.890759 1952.7445
-528.14844 -63.899979 1953.0762
-527.33917 -63.907234 1953.3475
-526.51184 -63.912319 1953.5527
-525.69 -63.918083 1953.7786
-524.86633 -63.923649 1953.9983
-524.06592 -63.932079 1954.3054
-523.25708 -63.939495 1954.5817
-522.46454 -63.94894 1954.9198
-521.64246 -63.954792 1955.1482
-520.83972 -63.963043 1955.4496
-520.06897 -63.97525 1955.8723
-519.25323 -63.981956 1956.1266
-518.44885 -63.990089 1956.4244
-517.63831 -63.997498 1956.7
-516.84216 -64.006699 1957.0306
-516.02527 -64.013367 1957.2834
-515.22223 -64.02179 1957.59
-514.38428 -64.025871 1957.7639
-513.59692 -64.036301 1958.1316
-512.77753 -64.042755 1958.3778
-511.97574 -64.05143 1958.692
-511.1676 -64.059341 1958.9828
-510.34818 -64.065865 1959.231
-509.52487 -64.07193 1959.4652
-508.72482 -64.08094 1959.7893
-507.91626 -64.088905 1960.0817
-507.11353 -64.097641 1960.3972
-506.30902 -64.106171 1960.7069
-505.50885 -64.115295 1961.0343
-504.70251 -64.123665 1961.3386
-503.86371 -64.12793 1961.5175
-503.0574 -64.136353 1961.8235
-502.23712 -64.143028 1962.0758
-501.42999 -64.151405 1962.3802
-500.58118 -64.154472 1962.5222
-499.78284 -64.164017 1962.8624
-498.97983 -64.173012 1963.1855
-498.19162 -64.183937 1963.5679
-497.37756 -64.191574 1963.8494
-496.55798 -64.198509 1964.1096
-495.74979 -64.206955 1964.4158
-494.92487 -64.213272 1964.6567
-494.09891 -64.219452 1964.8938
-493.28326 -64.227013 1965.1729
-492.46512 -64.234276 1965.4425
-491.64893 -64.241814 1965.7209
-490.83496 -64.249672 1966.009
-490.01151 -64.256325 1966.26
-489.2164 -64.266724 1966.6255
-488.38171 -64.271942 1966.8326
-487.59973 -64.284134 1967.2531
-486.77539 -64.290771 1967.5035
-485.96939 -64.299866 1967.8291
-485.13031 -64.304611 1968.0214
-484.33133 -64.31469 1968.3771
-483.51419 -64.322395 1968.66
-482.68338 -64.328316 1968.8879
-481.85559 -64.334648 1969.1289
-481.05923 -64.345215 1969.4993
-480.25378 -64.354599 1969.8334
-797.8714 -60.579575 1858.9918
-797.19415 -60.591377 1859.4059
-796.46161 -60.599007 1859.6919
-795.73682 -60.607243 1859.9965
-795.06171 -60.619274 1860.4178
-794.3194 -60.626217 1860.6829
-793.63544 -60.637619 1861.085
-792.86542 -60.642471 1861.286
-792.12708 -60.649761 1861.5619
-791.36145 -60.654976 1861.774
-790.61542 -60.661701 1862.0327
-789.83527 -60.665817 1862.2114
-789.11938 -60.6749 1862.5424
-788.34808 -60.679722 1862.7428
-787.61957 -60.687859 1863.0448
-786.85321 -60.693092 1863.2579
-786.12164 -60.701023 1863.5538
-785.34912 -60.705811 1863.7532
-784.59863 -60.712303 1864.0052
-783.83105 -60.717499 1864.2172
-783.10608 -60.726002 1864.5309
-782.3302 -60.730583 1864.724
-781.6236 -60.740543 1865.0825
-780.84351 -60.744816 1865.2665
-780.12549 -60.753929 1865.599
-779.35773 -60.759193 1865.8134
-778.61627 -60.766514 1866.0909
-777.86096 -60.772781 1866.3361
-777.13269 -60.781158 1866.6464
-776.36194 -60.786243 1866.8552
-775.62952 -60.794331 1867.1566
-774.86072 -60.799591 1867.3711
-774.12732 -60.807648 1867.6714
-773.34485 -60.811859 1867.8538
-772.62445 -60.820972 1868.1866
-771.85248 -60.826035 1868.3951
-771.14648 -60.836304 1868.7639
-770.37286 -60.84127 1868.9695
-769.63782 -60.8493 1869.2692
-768.87457 -60.855106 1869.5009
-768.11682 -60.86137 1869.7463
-767.35699 -60.867477 1869.9872
-766.63013 -60.876213 1870.309
-765.84851 -60.880623 1870.4977
-765.10052 -60.887714 1870.7689
-764.33582 -60.893497 1870.9999
-763.59979 -60.901577 1871.3015
-762.84149 -60.907894 1871.549
-762.09369 -60.91507 1871.8228
-761.33099 -60.92107 1872.0607
-760.5675 -60.927013 1872.2968
-759.81213 -60.933636 1872.5536
-759.08771 -60.942741 1872.8871
-758.31793 -60.948231 1873.1094
-757.5686 -60.955383 1873.3826
-756.79767 -60.960808 1873.6029
-756.06787 -60.969559 1873.9255
-755.28857 -60.974331 1874.1259
-754.54816 -60.982265 1874.4233
-753.77679 -60.987713 1874.6444
-753.04724 -60.996555 1874.97
-752.26306 -61.000992 1875.16
-751.49994 -61.007145 1875.4031
-750.74512 -61.013992 1875.6672
-750.00348 -61.021931 1875.965
-749.23944 -61.028049 1876.207
-748.50244 -61.036404 1876.5176
-747.73877 -61.042587 1876.7616
-747.00757 -61.051449 1877.0879
-746.25293 -61.058411 1877.3558
-745.50128 -61.065632 1877.6317
-744.74457 -61.072456 1877.8955
-743.9765 -61.078362 1878.1311
-743.20026 -61.083611 1878.3464
-742.45966 -61.091805 1878.6525
-741.68103 -61.096893 1878.8628
-740.92303 -61.103691 1879.1259
-740.16449 -61.110455 1879.3879
-739.41431 -61.117931 1879.6719
-738.62848 -61.122467 1879.8656
-737.89197 -61.131104 1880.1853
-737.12836 -61.137516 1880.4366
-736.3833 -61.145485 1880.7358
-735.61584 -61.151608 1880.9783
-734.87061 -61.159599 1881.2782
-734.08838 -61.16452 1881.4839
-733.32202 -61.170788 1881.7308
-732.54608 -61.176258 1881.9532
-731.79224 -61.183594 1882.2333
-731.00659 -61.18829 1882.4319
-730.25928 -61.196213 1882.7297
-729.48352 -61.201752 1882.9546
-728.74982 -61.21085 1883.2887
-727.97675 -61.216656 1883.5217
-727.22278 -61.224087 1883.8046
-726.427 -61.228004 1883.9795
-725.71814 -61.239277 1884.3805
-724.95172 -61.245701 1884.6327
-724.2019 -61.253555 1884.9286
-723.43237 -61.259758 1885.174
-722.69238 -61.268482 1885.4967
-721.92328 -61.274746 1885.7439
-721.16705 -61.282135 1886.0255
-720.39587 -61.28825 1886.2683
-719.61554 -61.293613 1886.4878
-718.8399 -61.299393 1886.72
-718.07141 -61.30579 1886.9714
-717.3089 -61.312721 1887.2391
-716.56195 -61.320992 1887.5482
-715.80341 -61.328289 1887.8274
-715.05231 -61.33625 1888.1268
-714.29614 -61.343796 1888.4136
-713.52332 -61.34993 1888.6569
-712.77557 -61.358231 1888.9669
-711.9931 -61.36356 1889.1857
-711.22888 -61.370483 1889.4531
-710.45746 -61.376793 1889.702
-709.67963 -61.382568 1889.9343
-708.92145 -61.39006 1890.2196
-708.17236 -61.398369 1890.5298
-707.39075 -61.403854 1890.7534
-706.63678 -61.411774 1891.0516
-705.84882 -61.416744 1891.2594
-705.08252 -61.423622 1891.5256
-704.32489 -61.431263 1891.8157
-703.54724 -61.437183 1892.0525
-702.81439 -61.447029 1892.4104
-702.06854 -61.455776 1892.7343
-701.26678 -61.459633 1892.9076
-700.50305 -61.466831 1893.1841
-699.73352 -61.473549 1893.4454
-698.99152 -61.482708 1893.7821
-698.20306 -61.487782 1893.9932
-697.47186 -61.497932 1894.3604
-696.69531 -61.504097 1894.6049
-695.92896 -61.511185 1894.8778
-695.13721 -61.516041 1895.0819
-694.38245 -61.524181 1895.3876
-693.59308 -61.529278 1895.5991
-692.82269 -61.536079 1895.8633
-692.04089 -61.541874 1896.0964
-691.28522 -61.550014 1896.4019
-690.50189 -61.55571 1896.6318
-689.72607 -61.562088 1896.8829
-688.93903 -61.567482 1897.1039
-688.20276 -61.577427 1897.465
-687.40973 -61.582317 1897.6703
-686.66681 -61.591717 1898.0144
-685.89008 -61.598103 1898.2659
-685.15552 -61.608292 1898.6346
-684.34906 -61.612041 1898.8047
-683.60248 -61.621189 1899.1414
-682.78357 -61.623844 1899.2777
-682.03998 -61.633301 1899.6239
-681.26782 -61.640209 1899.8914
-680.50305 -61.647804 1900.1799
-679.71436 -61.65324 1900.4021
-678.97131 -61.662838 1900.7527
-678.17877 -61.667961 1900.9652
-677.40961 -61.675224 1901.2437
-676.61823 -61.680485 1901.4604
-675.86279 -61.689037 1901.7787
-675.08081 -61.69519 1902.0229
-674.33307 -61.704494 1902.3643
-673.54053 -61.709713 1902.5797
-672.80066 -61.719776 1902.9446
-672.02087 -61.726204 1903.1973
-671.23755 -61.732315 1903.4403
-670.46436 -61.739384 1903.7128
-669.70642 -61.747871 1904.0292
-668.89801 -61.751732 1904.2026
-668.14252 -61.760487 1904.5271
-667.34534 -61.7654 1904.7333
-666.57495 -61.772816 1905.0165
-665.79828 -61.779675 1905.2825
-665.0365 -61.78793 1905.5916
-664.22223 -61.791321 1905.7507
-663.46265 -61.79982 1906.0671
-662.67767 -61.805973 1906.3114
-661.9071 -61.813488 1906.5978
-661.12799 -61.820221 1906.8599
-660.36493 -61.828476 1907.1689
-659.59436 -61.836052 1907.457
-658.80847 -61.842213 1907.7014
-658.03827 -61.849854 1907.9917
-657.24866 -61.855694 1908.2263
-656.47113 -61.86269 1908.4966
-655.67621 -61.868057 1908.7166
-654.91577 -61.876705 1909.0377
-654.12585 -61.882591 1909.2736
-653.34717 -61.889553 1909.5427
-652.55408 -61.895161 1909.7703
-651.79187 -61.903728 1910.0887
-650.99994 -61.909489 1910.3208
-650.23932 -61.91824 1910.6453
-649.43445 -61.922798 1910.8402
-648.67737 -61.931938 1911.1765
-647.88159 -61.937397 1911.3992
-647.14117 -61.94817 1911.786
-646.34424 -61.953556 1912.0065
-645.57568 -61.961689 1912.3115
-644.79053 -61.968239 1912.568
-644.01727 -61.975956 1912.8604
-643.21735 -61.981121 1913.0741
-642.43799 -61.988297 1913.3496
-641.65576 -61.995197 1913.6168
-640.8844 -62.003185 1913.9175
-640.10864 -62.01075 1914.2052
-639.31573 -62.016685 1914.4425
-638.52911 -62.023254 1914.6992
-637.75555 -62.031097 1914.9956
-636.98206 -62.038979 1915.2928
-636.19452 -62.045506 1915.5485
-635.40558 -62.051914 1915.8004
-634.63635 -62.060276 1916.1125
-633.8233 -62.064369 1916.2928
-633.05756 -62.073105 1916.6166
