# .PCD v0.7 - Point Cloud Data file format
VERSION 0.7
FIELDS x y z normal_x normal_y normal_z curvature
SIZE 4 4 4 4 4 4 4
TYPE F F F F F F F
COUNT 1 1 1 1 1 1 1
WIDTH 656
HEIGHT 1
VIEWPOINT 0 0 0 1 0 0 0
POINTS 656
DATA ascii
1121.33 5247.6001 14016.75 0.27433515 -0.055527598 -0.1284339 0.30795836
246.75 5545.98 14494.76 -0.03121379 -0.39088616 0.18975529 0.43562984
359.25 5520.9502 14418.67 -0.053208452 -0.50427347 0.61844307 0.79974669
644.25 5333.8198 14025.71 0.27152014 -0.41246787 -0.18979892 0.5290336
696.40997 5331.4399 14022.41 0.28122449 0.010364801 0.31712994 0.42398825
719.47998 5325.1201 14022.05 -0.10271414 -0.015583009 -0.30880493 0.32581207
739.12 5327.98 14018.33 -0.090885222 0.69384801 -0.073194437 0.70359266
1012.99 5278.1201 14018.47 0.13302556 -0.27828091 0.12949753 0.33452305
1207.78 5231.0098 14017.38 0.31607583 0.2651588 -0.73976862 0.84703648
1216.12 5235.0498 14018.47 0.39160168 -0.22741479 -0.087652318 0.46125078
191.46001 5579.9199 14523.39 0.17144583 -0.14246136 0.33122584 0.39924863
211.59 5574 14505.78 -0.051045679 0.57519364 -0.67877561 0.89117324
456.70001 5445.27 14206.21 -0.15519625 -0.5807907 0.48490024 0.77235478
543.21997 5415.48 14163.88 -0.17291892 0.052920416 -0.4831506 0.51588374
645.59003 5344.8999 14024.65 0.40406102 -0.24746186 -0.15152287 0.49745539
859.46002 5361.9302 14144.07 0.47796029 -0.17187288 -0.11867784 0.52160406
980.66998 5301.6602 14024.96 0.42399916 -0.26691359 -0.30267364 0.58534563
1037.64 5283.3198 14017.92 -0.08937116 0.028639942 0.30479789 0.31891879
1042.33 5283.0801 14017.66 -0.020823821 -0.0080090463 0.38542503 0.38607025
1109.76 5267.5498 14015.12 0 -0.1678181 0.37370467 0.40965608
1156.84 5255.75 14018.95 0.63716948 0.33684298 -0.53819013 0.89949805
1199.13 5248.6099 14014.86 -0.1802052 -0.43361878 0.67175806 0.81960845
260.09 5569.29 14482.27 -0.075732715 0.43917808 -0.270549 0.5213536
295.73001 5565.0498 14471.75 0.31144175 0.15671569 -0.59716552 0.69149286
452.69 5447.6499 14205.42 0.13309874 0.73844093 -0.58502495 0.95145386
498.10001 5449.2598 14201.57 -0.0289388 0.34446067 -0.4574945 0.57340372
544.28998 5426.1499 14161.37 0.29393333 -0.085014135 -0.26915869 0.40751761
627.67999 5360.6099 14027.61 0.30574644 -0.43760854 -0.020136878 0.53421682
722.63 5348.46 14021.14 0.37113643 -0.50409162 0.18894549 0.65387386
759.91998 5342.3799 14024.81 0.37880087 -0.22219095 -0.11671831 0.45440298
1024.4399 5296.6099 14017.2 -0.19057493 0.13039014 0.4177177 0.47729284
1033.15 5295.3301 14020.26 -0.17410697 0.18950924 0.35111573 0.43532661
1076.0699 5296.1401 14020.04 0.19975045 0.39950091 -0.27528071 0.52467197
1133.21 5280.8799 14019.58 -0.1156737 0.21268857 -0.63554227 0.68009621
1144.62 5277.3198 14016.78 -0.083314955 0.19207165 0.61792552 0.65242994
1201.74 5260.0098 14015.19 -0.030601993 0.15597126 0.36175963 0.39513737
1232.22 5249.5 14016.48 -0.19848272 0.085646302 0.40208223 0.45650935
1267.6899 5248.8398 14020.1 0.34615427 -0.14723158 -0.44388974 0.58184022
1270.58 5245.3701 14021.14 0.24200101 -0.52460754 0.50744891 0.76894861
284.84 5582.29 14473.58 0.29612485 0.61045825 -0.60320699 0.90785891
628.97998 5371.73 14026.62 -0.37237477 -0.36934581 0.48721394 0.71586084
648.78003 5367.0298 14022.58 0.10835242 -0.48810682 0.50338602 0.70949703
652.98999 5375.8701 14020.61 -0.013254691 -0.26129398 0.56843877 0.62575781
657.78003 5376.54 14021.84 0.35835516 -0.54047215 0.24885257 0.69459063
669.65997 5375.27 14028.31 0.31478196 -0.64761096 -0.20094894 0.74757481
720.76001 5361.6899 14024.44 -0.059907623 0.67439222 -0.57744527 0.88985217
724.28003 5360.6299 14022.95 -0.11406472 -0.53110147 0.52902466 0.75825232
780.97998 5350.52 14025.48 0.23355965 0.28885919 0.010261804 0.37161142
797.19 5350.27 14022.95 0.37415823 -0.37495899 0.001506269 0.52970833
896.51001 5384.75 14141.24 -0.032035768 0.15431941 -0.54262131 0.5650475
937.72998 5326.0698 14023.46 -0.20458408 0.24178314 -0.34226763 0.46632701
977.59998 5325.0601 14021.13 -0.066540837 -0.43367708 0.4719727 0.64440805
981.81 5324.9702 14020.87 -0.20950377 -0.51653045 0.43604299 0.70769274
1020.46 5314.27 14022.17 -0.2443541 0.35230699 -0.14511965 0.45264649
1023.16 5311.8301 14021.29 -0.2786482 -0.40993434 0.43435693 0.65905762
1039.42 5308.5298 14022.95 -0.21998486 -0.056262672 0.29461437 0.37196299
1073.27 5297.9502 14021.18 0.26447493 0.022340089 0.35212126 0.44094834
1082.63 5304.96 14017.81 0.001971364 0.16819084 -0.41051868 0.44364133
1143.3 5288.3301 14015.96 0.20702651 0.43020979 -0.68212998 0.83261138
1201.95 5274.9399 14021.03 -0.055555556 -0.64751369 0.67912799 0.93998682
1289.6899 5255.9302 14015.44 0.24033016 -0.065967232 0.27678576 0.37245217
232.75 5593.6499 14486.42 -0.080364734 0.18851563 -0.73919809 0.76707917
261.10001 5590.7798 14473.97 -0.12367687 0.81829834 -0.49813288 0.96594232
288.5 5590.8301 14473.43 0.15958378 0.6746347 -0.44233212 0.82234824
292.76001 5590.0601 14472.03 -0.052630134 -0.46114537 0.70841807 0.84692454
420.14001 5475.54 14203.84 -0.18468499 -0.2458902 0.60019773 0.67439443
468.70001 5481.0801 14210.05 -0.092963383 -0.022582591 -0.3041364 0.31882772
650.21002 5378.8198 14021.32 0.44735175 -0.16511232 0.19636007 0.51569653
819.15997 5360.1899 14022.82 -0.27838466 -0.34059519 0.81609291 0.92709804
986.66998 5334.0898 14020.38 -0.1975309 -0.39712039 0.47635341 0.65087301
990.88 5333.9902 14020.12 -0.10185605 0.017477721 -0.44844526 0.46019918
1238.11 5272.3501 14015.63 0.28850868 -0.33816069 -0.014362983 0.44474286
1241.12 5271.5098 14017.29 -0.052370697 0.53078675 -0.17611158 0.56168723
1244.27 5271.3198 14018.69 0.15500169 0.53155094 -0.48846054 0.73835331
249.71001 5600.3301 14478.73 -0.074695036 0.10037562 -0.30898917 0.33336005
261.70999 5603.9502 14477.12 -0.028884264 0.14589411 -0.34941155 0.37974703
289.69 5603.54 14473.42 0.36272329 0.69806445 -0.41867664 0.8911522
452.67001 5485.5601 14212.06 -0.35601056 0.0078112185 0.15616786 0.38883534
547.59998 5453.8501 14140.73 0.12701979 -0.25799471 0.35784835 0.45907596
612.51001 5396.6899 14025.91 -0.2220066 -0.48723871 0.51057559 0.73984855
813.67999 5376.04 14025.22 -0.023556411 0.0098001361 -0.31726205 0.3182863
820.85999 5371.2598 14021.81 0.061369173 0.089823544 0.31650954 0.33468306
922.10999 5351.4902 14021.36 0.18247627 0.72376525 -0.54799455 0.9259761
926.09998 5350.1201 14021.62 0.14531583 0.75265396 -0.3615317 0.84753162
945.91998 5348.6001 14022.59 -0.047348097 0.16883206 -0.28108442 0.33129227
1183.58 5302.1401 14017.26 -0.06244608 0.018315434 0.42431259 0.42927399
1213.87 5292.0698 14015.15 -0.23693953 0.079957336 0.46646988 0.52927089
1237.15 5286.4399 14018.56 -0.19527015 -0.60793269 0.37670654 0.74136388
1244.4399 5283.3501 14019.08 -0.39036003 0.45242786 -0.18477145 0.62546974
1251.9301 5281.1201 14015.93 0.0028765164 0.14397311 0.35235783 0.38064757
1262.4 5277.9302 14016.19 0.22222222 0.1115388 -0.63824737 0.6849696
1276.0699 5281.3301 14017 -0.27591273 -0.24525577 0.83722663 0.91500092
1315.96 5088.1699 13572.05 -0.19715148 -0.3082419 0.40188885 0.54350382
193.75999 5631.0801 14498.67 0.15411156 0.37904164 -0.45333153 0.61068189
197.53 5630.8301 14500.43 -0.024950057 0.3368969 -0.39762124 0.52175152
246.53 5613.79 14480.12 -0.17204368 0.61042619 -0.47428164 0.79193574
273.35999 5611.04 14474.16 0.47585899 -0.43903953 0.21985213 0.68376344
290.23001 5613.9302 14469.38 0.086990006 0.56723738 -0.64037997 0.85989076
417.82999 5500.77 14205.64 0.10416409 0.78922784 -0.54650664 0.96560872
465.75 5496.25 14214.05 -0.13793047 -0.22355835 0.81984001 0.86089534
598.44 5411.6699 14022.36 0 0.44721359 -0.2763932 0.52573109
613.77002 5407.8301 14024.89 0.040250674 0.24054949 -0.41485947 0.48124063
732.46002 5393.9399 14021.22 0.0387282 -0.25296068 0.46394679 0.52984488
835.41998 5380.1899 14022.36 -0.037797756 -0.098253608 -0.28764346 0.30630249
880 5381.0898 14030.76 0.33165848 0.43823236 -0.37005132 0.66255784
932.42999 5362.1699 14023.14 0.42832124 -0.57788259 -0.046229754 0.72079438
935.32001 5360.5698 14020.34 0.019095905 -0.37496018 0.51720411 0.63910866
939.40997 5359.7202 14022 0.019097703 0.72375888 -0.64042318 0.9666093
951.13 5357.1001 14020.6 0.44172609 -0.037421957 -0.62255305 0.76426083
956.34003 5365.48 14020.26 0.41227818 0.58768594 -0.53306741 0.89415264
1080.5699 5331.3599 14017.71 0.45673913 -0.17714319 -0.34511864 0.59924722
1102.53 5326.8599 14017.71 0.10290716 0.59908497 -0.49277472 0.78250855
1155.34 5324.25 14019.39 -0.060275726 -0.051230758 0.50677919 0.51291609
1232.3199 5302.48 14016.15 -0.081146121 0.38215715 0.0068161399 0.39073679
1243.47 5295.1699 14016.32 0.21963736 -0.22691953 -0.055020567 0.32056251
1247 5294.21 14017.98 -0.11139718 -0.4853735 0.54475778 0.7380771
1321.04 5282.9302 14018.78 0.061131358 -0.48835993 0.60244215 0.77792609
438.76999 5517.2402 14211.71 0.59411269 -0.024535153 -0.52723169 0.79469812
514.14001 5491.1299 14163.61 -0.072480269 0.047549814 0.35465789 0.36509806
618.59003 5417.8599 14024.03 0.22311127 -0.55292082 0.44636416 0.74480939
664.13 5424.1699 14026.05 -0.14722709 0.069660485 0.43922564 0.4684523
765.53003 5400.3999 14023.51 0.049835451 0.15582404 0.42015401 0.45088148
785.13 5397.04 14022.11 0.16942121 0.5847106 -0.46273166 0.76466376
863.78003 5385.5601 14023.51 -0.11208627 0.40967613 -0.11135229 0.43908677
1029.65 5359.3301 14019.14 -0.44885039 -0.47028768 0.51834297 0.83145452
1032.36 5356.8398 14018.17 0.23209234 -0.28009212 0.28012389 0.45911637
1121.74 5339.6602 14016.25 -0.31201226 -0.38614783 0.55948299 0.74798596
1158.22 5335.0801 14018.36 -0.36979178 -0.44944078 0.50338757 0.76950765
1255.1801 5315.2798 14015.82 -0.064497255 -0.49582264 0.5 0.70710677
1304.9399 5300.5098 14016.87 -0.18569639 0.078637362 -0.28294861 0.34745777
194.48 5651.9102 14490.55 0.18466906 0.032431871 0.24935162 0.31197873
211.88 5652.98 14486.67 0.046314612 -0.50966996 0.29253352 0.58947808
251.84 5636.04 14476.21 -0.27397233 0.24043886 -0.42491654 0.55984437
420.20999 5525.0601 14205.9 -0.34662151 -0.29451281 0.65189582 0.79489142
680.72998 5430.2402 14022.91 -0.092390291 -0.45952383 0.5326786 0.70953828
759.62 5414.6899 14019.93 0.15443397 -0.029408395 -0.49923965 0.52340704
763.04999 5412.75 14022.21 -0.090693198 0.21784312 0.41262549 0.4753322
936.98999 5385.3599 14022.21 0.25365508 -0.36223251 -0.098309353 0.45300996
960.58002 5389.2798 14020.72 0.20008874 0.33161643 -0.4505817 0.59416229
1241.77 5322.3301 14017.66 -0.13608667 -0.43273884 0.28972042 0.53825682
1245.42 5319.54 14016.79 0.11478573 0.13402411 0.3761467 0.41548112
194.86 5663.02 14486.21 -0.098252371 -0.09206143 -0.34054792 0.36619902
252.31 5646.4399 14472.15 0.0046222452 -0.8560642 0.3515332 0.92544198
564.97998 5458.4902 14025.35 -0.11559113 0.095449477 -0.39109614 0.41884136
772.15997 5420.9702 14018.53 0.28064778 0.017381907 0.38250947 0.47474077
811.37 5416.9399 14022.82 0.57579112 -0.29266936 -0.4192079 0.77001691
828.48999 5417.7402 14021.51 0.45138636 -0.32663429 0.37615997 0.67226177
957.92999 5392.3599 14021.33 0.40204307 -0.0084361723 -0.74391925 0.84565103
1006.68 5390.2998 14018.7 0.079846568 0.027941614 -0.34285033 0.35313249
1014.45 5386.1001 14019.76 -0.20274292 -0.31678581 0.82945728 0.91074544
1036.71 5379.3799 14017.49 0.24109387 -0.32654059 0.089076757 0.41555947
1073.9 5377.9102 14020.19 0.33151853 0.056902617 -0.41691887 0.53569001
1209.15 5341.98 14016.26 0.1739369 -0.26311219 0.42511767 0.52934593
1214.0601 5342.2402 14015.73 -0.09308593 -0.445618 0.720052 0.85188925
1217.77 5342 14017.22 0.012273438 -0.014816999 -0.44547653 0.44589183
192.03999 5676.2002 14490.97 -0.050364979 0.64726931 -0.71635938 0.96678072
195.84 5675.6699 14487.91 -0.029555298 0.60610986 -0.44216663 0.75083554
261.32999 5665.6099 14471.05 0.38376927 0.52736902 -0.6791082 0.94158638
269.28 5661.21 14471.01 -0.23426127 0.019509166 -0.33955836 0.41298768
402.85999 5550.2002 14206.49 -0.096152194 -0.32324505 0.74180269 0.81486428
549.42999 5466.8301 14022.72 0.11842126 -0.32402754 0.31644481 0.46813968
581.07001 5460.48 14028.75 0.20080018 0.46199033 -0.41739768 0.65419918
619.72998 5455.6802 14027.35 0.069199912 0.70944667 -0.36327487 0.80004489
623.32001 5454.5898 14027.61 -0.0096251648 -0.49990696 0.50060159 0.70753199
684.10999 5452.9702 14022.19 -0.30257258 -0.45820746 0.35533181 0.65403742
716.45001 5444.2798 14020.62 0.040258318 0.085437626 -0.57389855 0.58161837
743.53998 5440.3101 14025.69 0.081415445 0.44524074 -0.28755659 0.53624302
763.03998 5439.0898 14023.51 0.22960827 -0.29653943 0.50797975 0.63142616
766.84998 5435.9399 14022.8 0.16044916 0.11946052 0.35397395 0.40658617
773.97998 5433.6899 14021.67 -0.12803233 -0.75669503 0.20026873 0.79315019
777.53003 5432.5098 14021.93 0.050625086 0.691733 -0.57611275 0.90164483
782.40997 5433.1699 14021.41 -0.029279325 -0.49912101 0.50457489 0.71033436
887.5 5423.6699 14020.44 0.055909403 0.32025015 -0.65333664 0.7297498
1036.29 5393.9199 14020.1 0.28434104 -0.19131395 -0.43013167 0.54996735
1122.71 5380.1602 14017.12 -0.00094933808 0.00040966272 -0.37578881 0.37579021
1146.4 5375.0298 14018.78 0.26851597 -0.44755629 -0.092144266 0.52999812
1204.1801 5355.75 14018.09 -0.39644271 -0.081417471 0.27903473 0.4915852
403.72 5562.0601 14206.77 -0.085279316 -0.032833397 0.48045954 0.48907256
419.98001 5564.3301 14213.57 -0.18449882 -0.00043153763 0.42009413 0.45882359
585.67999 5468.8999 14023.66 0.20467493 0.40136844 -0.53319192 0.69805592
594.59003 5477.7402 14024.78 0.10252125 0.17702451 -0.37472603 0.42692843
605.5 5470.6699 14023.75 0.021489747 0.0089483857 0.43027312 0.43090233
835.66998 5440.27 14023.75 0.27769244 -0.21845157 0.16403115 0.38953871
885.32001 5436.5 14022.16 0.2007329 0.52763402 -0.67890167 0.88294894
905.33002 5431.2798 14021.29 -0.28029162 -0.41126123 0.45203343 0.67233431
1002.67 5414.8398 14021.03 0.10924149 -0.27302119 0.23247695 0.37485969
1006.43 5414.8301 14020.76 0.016854959 0.46207634 -0.49827471 0.67976195
1111.75 5384.3701 14017.99 0.074068263 0.13341829 0.3560245 0.38734996
1149 5387.1899 14018.84 0.35333943 -0.21171908 0.36519712 0.55049312
1246.41 5360.7798 14019.03 0.4026266 -0.11657789 0.40870216 0.58543664
1260.75 5350.3198 14015.19 0.17365718 0.068874389 -0.30000001 0.35341266
1282.72 5358.3101 14018.31 0.18801381 -0.039374948 -0.49526972 0.53121716
217.27 5694.8501 14473.41 -0.077851728 -0.59562933 0.45063153 0.75093544
364.23001 5580.8999 14203.67 -0.031886112 -0.4474926 0.72075701 0.84897411
368.04999 5581.79 14206.55 -0.20609206 -0.38216537 0.68485248 0.81089288
417.03 5575.1099 14214.37 0.00024466962 -0.43748197 0.40731558 0.59774286
480.19 5558.9302 14166.28 -0.16015981 0.22371978 0.22928511 0.35815272
569.03003 5492.5 14021.68 0.51125598 -0.49731278 0.30598444 0.77609867
642.15997 5475.21 14022.06 0.1752567 0.43505478 -0.49869978 0.68460864
662.62 5472.6401 14023.72 0.31796265 -0.10539758 -0.017748574 0.33544582
794.21002 5455.7798 14023.46 -0.019464716 0.29563758 -0.69910252 0.7592923
822.38 5458.27 14022.48 -0.41906959 0.33821255 -0.14546448 0.55782342
834.19 5451.5 14017.86 -0.27162346 -0.57318127 0.50571132 0.81120896
892.09003 5448.46 14025.36 0.045670107 0.25233811 -0.41162911 0.48497301
969.04999 5433.8101 14017.67 0.22488004 -0.45780993 0.044287048 0.51197881
1044.24 5415.6602 14021.01 0.028908208 0.13626918 -0.52219993 0.54046071
1137.5699 5394.4199 14016.99 -0.35478806 0.50548369 0.2685082 0.67341292
1151.1 5397.0498 14014.87 0.018925026 0.083901078 0.28904545 0.30157059
1205.87 5380.1299 14018.39 -0.17003426 -0.46971968 0.47874573 0.6919145
1209.35 5378.7798 14016.99 0.23831253 -0.22957391 -0.012019968 0.33112159
1279.5601 5361.02 14019.18 -0.27869838 -0.37409174 0.32004842 0.56572819
1307.09 5157.7598 13518.68 0.42282182 -0.12990552 -0.026567325 0.44312477
196.99001 5709.1201 14481.3 0.058709346 -0.80173814 0.57153296 0.9863472
533.63 5505.8501 14022.78 0.25824445 0.20997179 -0.52667421 0.62302816
601.08002 5498.2202 14023.05 -0.23280993 -0.18140012 0.37054402 0.47371864
604.67999 5497.02 14024.97 -0.39207739 -0.60628122 0.40020138 0.82550758
855.82001 5459.73 14023.24 -0.025898963 0.095656127 -0.33850828 0.35271618
859.70001 5457.1602 14022.28 0.24704273 0.38244116 -0.70666075 0.84063119
947.32001 5441.6499 14017.83 -0.21713442 -0.0091639459 0.31368297 0.38161281
966.47998 5437.4702 14019.75 -0.087974176 -0.31028554 0.48038355 0.57860601
986.82001 5439.8301 14019.03 -0.13655429 0.50059527 -0.49086559 0.71427709
1004.2 5440.54 14020.86 0.38544559 -0.22172104 0.27437213 0.52250224
1006.97 5438.0601 14019.9 0.045525141 0.11893907 -0.4799993 0.49660686
1153.9 5410.1699 14019.37 -0.0047534853 -0.12195083 0.52219427 0.53626621
1296.87 5365.1499 13996.34 0.25064212 0.43235764 -0.51566511 0.71809828
147.12 5730.0098 14499.88 -0.087388575 0.040732235 -0.37318948 0.38544291
194.03999 5719.0498 14475.7 0.081224263 -0.030038327 -0.3586041 0.3689127
534.91998 5519.21 14027.26 0.010638386 0.50827575 -0.68561822 0.85353953
582.17999 5506.0098 14025.73 0.18829991 -0.0014439523 0.33871341 0.38753802
683.5 5503.5898 14025.34 -0.1086235 -0.40733808 0.76884317 0.87683702
930.96002 5462.29 14019.07 0.41243145 0.3873331 -0.61201286 0.83347851
985.09998 5448.2202 14017.51 -0.29995283 0.15636469 0.72723532 0.80205536
1045.6 5439.5801 14018.2 0.13593976 -0.27793407 -0.23203374 0.38673845
1156.87 5421.5698 14019.67 0.22969031 -0.34413409 0.039128035 0.41559225
1176.1 5414.9302 14017.41 0.035450928 0.38714647 -0.37201411 0.53808331
1218.8 5401.4399 14017.24 -0.19057339 -0.55182207 0.70346886 0.91416317
1254.79 5394.4702 14018.47 0.23362479 -0.34987819 -0.14350685 0.44451043
1262.16 5388.71 14018.3 -0.16937956 0.032443911 -0.30360386 0.34916666
1299.88 5375.3398 13993.76 -0.20085317 0.41598529 -0.10756595 0.47429547
370.44 5618.0698 14206.92 0.15275806 -0.55223858 0.65968174 0.87377489
423.69 5606.25 14198.59 0.14130726 -0.46568173 0.47528523 0.68023765
426.76999 5604.2402 14196.06 0.16329077 -0.12130442 0.25805807 0.32859185
568.02002 5518.8501 14022.88 0.16431655 0.092146188 0.31340671 0.36567008
572.84998 5529.3999 14025.09 0.027494399 0.24117129 -0.67535323 0.71765006
666.78998 5507.1201 14023.14 0.5446223 -0.2050402 0.046496861 0.58379525
728.52002 5503.3599 14021.54 -0.058056735 0.36343056 -0.57179147 0.6799984
751.72998 5496.29 14021.48 0.16880433 0.17098168 -0.4340862 0.49614564
943.67999 5467.29 14021.22 -0.20650683 0.024872661 0.4344587 0.48168257
970.60999 5460.73 14018.6 0.41162503 0.12259032 -0.4581883 0.62801278
987.40002 5460.9302 14020.68 0.10483959 -0.060418189 -0.30775753 0.33069077
1051.34 5449.6699 14020.42 0.2346075 -0.23304315 0.47498494 0.5787577
1075.77 5444.29 14018.93 -0.37390524 -0.59700614 0.46166512 0.84223288
1079.55 5441.4902 14019.73 -0.27018112 -0.42035821 0.51735342 0.71927285
1099.52 5438.2998 14017.8 0.59258568 0.045881242 -0.25133407 0.64531517
1162.34 5431.8799 14018.56 0.3321161 -0.25045389 0.16353628 0.44695902
1308.16 5380.2402 13991.1 0.012399971 0.19246 -0.30860093 0.36390817
569.40002 5532.2202 14027.34 -0.028434679 -0.012756974 -0.34513128 0.34653553
588.90002 5529.0601 14024.55 -0.03294386 0.59674108 -0.67448276 0.9011727
631.60999 5522.52 14021.94 -0.49802119 0.35205019 0.087712735 0.61616391
733.35999 5511.4102 14019.74 -0.059288852 0.60328174 -0.67871141 0.9100073
857.96002 5494.0801 14019.48 -0.033265509 0.010757416 -0.30703181 0.30901593
895.40002 5495.1401 14023.29 -0.28221199 -0.39871457 0.60291809 0.77596849
1161.8 5444.6802 14018.47 -0.18586275 0.19866356 0.55348265 0.6167295
1280.89 5398.6699 13994.81 -0.011799205 0.038322687 0.34442776 0.34675398
1285.34 5399 13994.27 0.10915171 0.56466085 -0.70204169 0.9075343
355.67001 5641.0698 14204.75 0.064391963 0.4577035 -0.61691034 0.77085483
606.20001 5545.0098 14024.09 0.12921657 0.16942695 -0.60210478 0.63869601
649.76001 5535.3398 14025.96 0.52148902 0.50960642 -0.4301782 0.84658301
775.57001 5520.6802 14022 -0.14129101 -0.40603194 0.24470621 0.4946779
778.89001 5517.5 14023.07 0.30198187 0.21836634 -0.89245284 0.96713442
904.90997 5503.5898 14022.69 -0.023930423 -0.52025372 0.37191433 0.63996625
951.67999 5488.52 14020.55 0.22078098 0.74406582 -0.43593985 0.89018077
1015.89 5483.27 14016.49 0.39060146 -0.40108794 -0.086150907 0.56644773
1055.8101 5472.8701 14019.22 0.22843406 0.52151585 -0.53408098 0.78064299
1136.55 5462.1602 14017.08 0.024872229 0.025908113 0.3011981 0.30333176
1140.6 5460.6299 14017.35 -0.2494698 -0.29600602 0.64355361 0.75101
1143.99 5458.5498 14017.88 0.24858817 0.13823813 -0.51172954 0.58546817
1204.39 5446.9199 14017.35 0.23644117 -0.1952742 -0.052117277 0.31105089
1278.23 5422.1699 13994.14 0.29234731 -0.46210912 -0.10149469 0.55615908
1291.53 5408.8799 13994.73 0.29081523 -0.24145794 0.20101091 0.4281131
1322.85 5384.4102 13933.99 -0.34914181 -0.28556782 0.37631729 0.58742124
596.78003 5562.5 14024.13 -0.49919325 0.4641293 0.13787557 0.6954276
599.89001 5561.3701 14026.06 0.092324495 -0.27016419 0.64772749 0.70785832
792.19 5527.4199 14025.09 0.02010577 0.70940208 -0.64824927 0.96118814
800.51001 5525.0698 14022.21 -1.1563301e-05 0.1336641 -0.47835308 0.49667671
858.01001 5518.6699 14017.99 -0.077118456 -0.48440027 0.59700054 0.77265805
903.87 5517.0698 14022.42 0.17996445 -0.0088499188 -0.41618598 0.45351547
1015.42 5498.3999 14020.39 0.05269932 -0.42070419 0.48746175 0.64605588
1018.13 5495.3999 14018.14 -0.073920332 -0.75598419 0.54030371 0.93215036
1038.16 5488.8101 14020.87 0.016526371 -0.068834603 -0.36041617 0.36730251
1132.63 5464.3501 14016.54 0.19135223 0.63342768 -0.48352617 0.81953883
1245.89 5443.6699 14016.6 -0.32164171 -0.29521585 0.45098332 0.62768763
1328.16 5390.4102 13924.6 0.096776024 -0.52207452 0.69326746 0.87323946
208.81 5778.1899 14470.08 0.073980622 -0.7937243 0.58398205 0.98818344
353.37 5665.1802 14203.39 0.29142523 0.32619786 -0.44294697 0.62252367
426.95999 5642.4102 14171.03 0.36166829 -0.65323031 0.15821725 0.76324731
498.97 5576.6602 14025.67 0.19561437 0.026439548 -0.23952447 0.31038043
516.51001 5579.7798 14023.79 0.0050481781 0.12983888 0.33302119 0.35747269
694.96002 5560.9399 14025.18 0.21552496 0.54058737 -0.50196004 0.76853734
786.81 5539.0498 14020.8 0.0080376491 -0.3460499 0.24690048 0.42517641
790 5538.6001 14020.8 -0.2852498 -0.5331077 0.46490571 0.76269823
951.71002 5513.7998 14020.54 0.21159115 -0.26344711 0.21297492 0.39941648
975.82001 5508.4199 14017.66 0.12271331 -0.053236306 -0.27448386 0.3053425
1024.73 5507.4102 14019.52 0.039449576 -0.46103716 0.3606903 0.58669329
1057.26 5497.3599 14017.71 0.1751892 -0.24410339 0.49310213 0.57743174
1134.9 5475.3101 14015.32 0.20092782 0.75528264 -0.38884601 0.87294048
1228.37 5458.46 14015.73 0.10633477 -0.36410955 0.57797587 0.69133133
1232.3 5458.8398 14016.85 -0.16858181 -0.52127767 0.62890762 0.83407134
132.77 5799.2402 14488.84 0.057651572 -0.41807413 0.72443056 0.83839685
597.92999 5573.2002 14019.83 0.38648042 0.59860861 -0.44693318 0.84109962
618.23999 5575.9702 14024.42 -0.056748852 0.066095442 -0.56160617 0.56832254
630.17999 5571.48 14022.44 0.1569875 0.6771872 -0.43746832 0.82134414
674.34003 5565.0298 14021.23 0.57836598 -0.23320679 0.29216576 0.68866062
784.21997 5551.4102 14019.29 0.071613669 0.75504947 -0.36399958 0.84126329
865.85999 5541.1899 14020.15 -0.11595265 -0.4510217 0.68202859 0.82585025
869.76001 5541.7402 14023.03 0.2217423 0.45730934 -0.5793106 0.77065051
903.53003 5541.6602 14022.54 0.038523242 0.034956157 0.35657799 0.3603524
919.59998 5536.5298 14020.29 -0.018665463 -0.51980823 0.28540498 0.5933001
943.29999 5531.4902 14015.75 0.54385579 0.11988103 -0.47941434 0.73483926
962.19 5523.9102 14020.69 0.04172466 0.49824718 -0.49702856 0.70500255
1151.78 5493.1099 14016.88 0.28215739 0.63892913 -0.14185435 0.71271724
1154.9399 5489.8301 14016.29 0.24987987 0.043057263 -0.42474285 0.49467197
1157.95 5485.8799 14015.97 -0.076388702 -0.13104363 -0.65279627 0.670187
82.379997 5814.98 14515.77 -0.033043347 -0.10648653 -0.31885555 0.33778706
355.10001 5692.96 14213.68 0.08571066 -0.2402285 0.58252323 0.63591611
522.85999 5601.6201 14023.03 -0.12598884 -0.48121077 0.72985637 0.88324815
563.58002 5596.8799 14024.97 0.51689011 -0.13422649 -0.6170544 0.81605655
701.33002 5581.52 14021.64 0.41530159 -0.58554971 -0.036060546 0.71877968
806.09998 5559.9502 14022.85 0.1918152 0.56084353 -0.69228297 0.91136944
871.40997 5552.25 14020.38 0.21439044 0.036948636 -0.39250097 0.44875991
874.72998 5549.1201 14019.8 -0.2164892 0.26610437 -0.11613895 0.36217034
946 5544.1299 14018.76 0.37682474 -0.0074118376 -0.34637198 0.51188415
1062.34 5520.96 14019.57 -0.16743836 0.29827198 0.020705298 0.34268132
1065.27 5519.02 14020.11 0.2366578 0.26678926 -0.46887437 0.58908963
1081.86 5514.0498 14015.84 -0.11162912 -0.33558446 0.25081697 0.43357486
1136.87 5500.71 14020.07 -0.041580681 -0.76308799 0.52706444 0.92834753
1150.9 5507.29 14017.96 -0.37427226 -0.54557836 0.50990105 0.83530509
1154.2 5504.6699 14017.1 0.3895821 0.37471277 -0.56529599 0.78214031
103.16 5823.2202 14500.91 0.11505519 -0.45182848 0.24421175 0.52633262
188.97 5816.6001 14469.73 0.063753419 0.26183087 -0.45384771 0.52782351
197.85001 5814.9302 14470.28 0.22394109 -0.19111843 0.74658203 0.80253386
527.17999 5613.0601 14023.25 -0.12013309 -0.084990412 -0.3187708 0.35109848
966.04999 5546.1201 14016.61 -0.087046728 0.12470171 0.32068479 0.35491744
985.78998 5543.02 14021.42 0.47738296 -0.037025899 -0.37384903 0.60747719
1024.53 5544.75 14019.57 -0.23401448 -0.59628594 0.60737437 0.88273633
1043.88 5536.48 14019.8 0.30792969 -0.063609451 -0.25086591 0.40224442
1084.24 5526.1699 14017.46 -0.19905043 -0.34197712 0.45940658 0.6063199
1119.71 5516.3501 14018.54 0.25144833 -0.22877029 0.012756437 0.34018353
1139.14 5511.6802 14018.81 0.16960353 0.3974717 -0.46617895 0.63566649
1180.02 5511.9399 14017.05 -0.21543939 -0.44939309 0.5403949 0.73511559
141.87 5830.1699 14478.06 -0 -0.77501237 0.61794156 0.99120933
335.32999 5710.75 14203.68 0.14567375 0.21198642 -0.37900525 0.45804375
353.29999 5717.0898 14212.23 -0.11775567 -0.12343609 -0.34437475 0.38431346
578.21997 5612.6401 14023.03 0.30649287 -0.56261903 -0.061025638 0.64358538
679.21997 5600.7598 14021.63 -0.21856248 0.62809235 0.27147114 0.71830779
847.48999 5584.9199 14023.64 -0.39428693 -0.60077286 0.33502617 0.79286367
871.77002 5575.4702 14019.34 -0.15260442 -0.80777502 0.4367345 0.93087357
901.35999 5578.8501 14017.85 0.0022765994 0.18990654 0.29056582 0.34712848
1004.63 5553.1802 14017.67 0.34460512 -0.17663272 -0.7411142 0.83618301
1086.74 5538.8799 14020.55 0 0 -0.44721362 0.44721362
1135.98 5533.8799 14016.9 -0.19407293 0.047914654 0.25380078 0.32307112
1144.4399 5534.6802 14019.24 0.1530727 0.60029823 -0.47848722 0.78277665
1151.62 5531.9302 14018.12 0.032266758 0.25138471 -0.85180229 0.88870835
1182.9 5522.77 14015.78 0.35172969 -0.29098958 -0.11982912 0.47196159
1214.64 5508.2998 14018.76 0.30189565 -0.47791567 -0.28569466 0.63337654
1236.86 5496.2002 13993.65 0.043184489 -0.31241018 0.46744275 0.56388628
1323.13 5437.2598 13901.9 -0.20387451 0.24933015 0.25521758 0.41093352
579.47998 5624.9399 14024.62 0.031199709 -0.14282177 0.62561548 0.64246887
699.06 5620.04 14022.75 0.18920054 -0.08964169 -0.40206182 0.45330584
702.82001 5619.46 14024.42 0.37145719 -0.39788887 -0.10509989 0.55438435
795.65002 5597.3999 14020.09 0.20707789 0.52125001 -0.68346947 0.88414556
798.84998 5596.8301 14021.75 0.12606521 0.6254853 -0.46531892 0.78971261
962.19 5571.2998 14018.42 -0.24806793 -0.55339175 0.43351346 0.7454623
973.94 5569.2598 14018.42 0.13585377 -0.0071989894 -0.27739123 0.30895624
977.96997 5567.1899 14018.97 -0.16316946 -0.45835441 0.61375749 0.78320581
1134.34 5547.52 14018.22 0.11063851 0.36937231 -0.69423962 0.79413188
1161.9 5538.71 14014.59 -0.36866266 -0.58667886 0.6169166 0.92773402
1189.71 5533.8398 14019.03 0.0074166358 -0.3199138 0.54816657 0.63473338
1202.3199 5530.54 14017.64 -0.19597416 -0.45246977 0.58285671 0.7634505
468.38 5649.6099 14027.06 -0.067977853 -0.78378165 0.59907871 0.98885286
644.96002 5629.6899 14024.82 0.26051235 -0.489467 0.66516113 0.86595839
707.76001 5628.3198 14020.61 0.082246296 0.042295128 0.55815822 0.56576842
905.12 5602.1299 14018.13 -0.0615457 -0.44600818 0.50757593 0.67848694
909.28998 5600.6602 14020.07 -0.19478731 -0.33026499 0.76811671 0.85849893
975.85999 5580.29 14017.14 0.20137179 -0.019112945 0.26366991 0.3323217
989.09998 5580.2798 14022.79 0.040850855 0.11532316 0.32767147 0.34976679
992.53998 5577.8501 14020.28 -0.079238184 -0.67539501 0.30783546 0.74645817
1009.67 5577.9702 14022.25 0.46101415 -0.32527998 -0.0932431 0.57187009
1184.79 5547.1899 14015.9 0.46816459 -0.22360681 -0.62277532 0.81057215
1188.08 5546.9502 14018.95 0.1380017 0.44275546 -0.68687731 0.82878059
117.89 5861.52 14480.4 0.09451066 0.18703237 -0.39311162 0.4454774
160.74001 5865.8501 14471.65 -0.077314995 0.42457786 -0.71632218 0.83627838
638.67999 5641.7998 14021.86 -0.044388644 0.00036013126 -0.42644837 0.42875248
860.33002 5615.1099 14019.1 -0.20582673 0.021425873 0.55360794 0.5910207
991.17999 5592.02 14021.31 0.25206539 -0.23255637 0.12129884 0.36377579
1149.23 5557.8599 14017.87 0.034899704 -0.60958618 0.47873837 0.77588898
1152.4301 5557.2002 14017.87 -0.062249362 0.035880774 -0.34287596 0.3503232
1220.6899 5533.23 13995.25 0.24120086 0.10561198 -0.42409959 0.49919158
1276.9399 5499.25 13922.94 -0.086004794 0.42829609 -0.32913986 0.54696196
100.75 5878.3599 14485.25 0.053110555 -0.0026832819 0.42980307 0.43308038
571.77002 5667.3198 14024.38 -0.39447451 0.070795327 0.07017865 0.40687487
685.45001 5647.6001 14020.55 0.085497886 -0.28279907 -0.57989955 0.65082151
862.65002 5626.6602 14019.19 -0.024256796 0.091242641 0.55193782 0.5599544
900.5 5621.4102 14018.91 0.070213735 0.43422133 -0.44410324 0.62506467
937.89001 5616.6602 14018.37 0.0081709325 0.029411376 0.32383668 0.32527217
941.33002 5614.04 14019.19 -0.31156552 -0.17944637 0.7355119 0.81868911
976.83002 5604.7798 14017.23 -0.0035509923 0.43720827 -0.74256206 0.86172044
989.28003 5603.1602 14018.62 -0.033198886 -0.80773067 0.54609954 0.97557968
992.94 5601.9399 14017.23 -0.17027754 -0.37658837 0.84346735 0.93928188
1076.16 5589.8701 14017.52 0.41745442 0.23481812 -0.35650003 0.59707624
1100.01 5583.8501 14018.07 0.073401019 0.03203699 -0.3491928 0.35825926
1342.95 5479.8398 13881.65 0.36255053 0.066755742 -0.49665904 0.61852199
573.02002 5679.6401 14025.94 -0.21234363 0.31771103 -0.11701198 0.39965224
650.69 5674.8301 14021.15 0.40690631 -0.026314586 -0.1772548 0.44461721
818.52002 5641.7998 14020.71 -0.04243087 -0.51374745 0.61895621 0.80550826
960.45001 5625.5098 14018.26 0.21993864 0.44518766 -0.42609972 0.65431339
995.53998 5613.48 14017.39 -0.092695713 0.32555047 -0.25242433 0.42224833
1135 5586.1699 14019.32 0.30500361 -0.47884086 -0.004435569 0.56774592
1140.3199 5595.8799 14018.37 -0.24841917 -0.32954174 0.052903682 0.41606328
1144.48 5594.3398 14018.64 0.0151354 0.16572452 0.38606182 0.42040148
1194 5572 13993.72 0.23519242 0.069338709 -0.34918186 0.42667469
1345.33 5489.5298 13877.59 0.21763405 0.1676497 -0.70299989 0.75477141
962.44 5637.1602 14018.41 0.39375257 0.59647107 -0.44107223 0.83985925
1006.1 5632.1602 14018.97 -0.192839 0.3291316 0.054802451 0.38538009
1042.99 5623.5 14018.13 -0.078490615 0.11374295 -0.47409087 0.49382222
1285.9301 5521.1299 13902 0.071025103 0.10575307 -0.49578884 0.51189339
1297.05 5511.4502 13896.5 -0.26467466 0.049578875 -0.59221596 0.65056169
1300.48 5509.4702 13893.72 0.2278287 0.080424041 0.28899547 0.37668598
118.84 5908.4502 14474.48 0.16569692 0.57061493 -0.64361173 0.8759526
756.87 5675.7002 14018.81 -0.16476946 -0.36729369 0.64935672 0.76401424
766.28998 5675.6899 14019.93 0.063060462 0.52603918 -0.71331072 0.88854152
770.02002 5674.6099 14018.54 0.11427262 0.48650613 -0.51592392 0.71827847
999.87 5637.8701 14020.47 0.35053724 -0.29857761 -0.42730093 0.62818074
1136.47 5612.71 14018.54 0.16248851 0.70115858 -0.47397971 0.86179036
1139.7 5609.3301 14019.63 0.21401726 0.31900391 -0.41093361 0.56252408
93.589996 5924.75 14479.56 0.12850462 -0.51440787 0.65405285 0.84197032
102.1 5924.1299 14476.41 0.23040399 -0.33804059 0.40355787 0.57464457
402.60999 5800.8501 14203.3 0.28621906 -0.09074232 0.0042134598 0.30028865
705.46002 5702.73 14020.36 -0.011961482 0.30325562 -0.66193205 0.72819024
733.71997 5693.5698 14025.98 -0.46221003 -0.49679318 0.22209154 0.71397913
845.71002 5679.6499 14020.35 0.31774157 -0.2362465 -0.30999938 0.50286353
1287.89 5543.9902 13890.99 0.4035466 0.10088665 -0.77743828 0.8817246
89.940002 5946.5498 14477.24 -0.095490739 0.4430618 -0.72472423 0.85477924
386.04001 5820.6099 14204 0.054536827 0.4997026 -0.5011785 0.70982879
557.09003 5730.7402 14025.56 0.5400331 0.075773396 -0.64341551 0.84342211
627.22998 5722.2002 14024.36 0.26109254 0.056666672 -0.52042627 0.58499908
948.37 5676.0801 14020.19 0.56142175 0.42681301 -0.49417275 0.86114484
1108.1899 5642.54 14017.04 0.054834809 -0.47502276 0.47968963 0.677315
1250.78 5570.5 13916.75 0.31287128 -0.10404256 0.63202822 0.71286255
1300.63 5543.3398 13885.09 -0.13615733 0.33695912 -0.50715303 0.6239267
1319.61 5535.8799 13878.06 -0.049607404 0.50477153 -0.69758195 0.86248237
85.389999 5947.3198 14476.95 -0.0024026334 0.42684352 -0.7213639 0.8381927
263.87 5842.48 14207.66 -0.37475014 0.10731333 -0.032196876 0.39113995
445.59 5821.8198 14201.76 -0.30910408 -0.15207517 0.058674604 0.34944943
587.22998 5732.46 14023.63 -0.33704025 -0.47840279 0.67139781 0.89064044
754.77002 5714.2402 14021.32 0.21362597 0.43793321 -0.38784638 0.62277311
835.20001 5699.0601 14021.31 -0.36239207 -0.47042787 0.66423726 0.8909778
953.51001 5683.4102 14016.88 -0.18703777 0.28242403 0.33252904 0.47468096
1275.78 5566.8799 13891.28 0.22028035 0.016312331 -0.64150059 0.6784634
1280.03 5565.8101 13892.94 -0.043648377 -0.1311467 -0.36421451 0.38955981
1303.05 5553.6499 13882.48 -0.016364694 0.18722096 -0.38079843 0.42464921
777.08002 5722.5098 14021.7 0.13403794 -0.28499407 -0.35992831 0.47826371
872.09998 5710.2598 14019.49 -0.047063559 0.047830194 0.29438984 0.30194053
888.78003 5705.7598 14018.65 -0.13914278 -0.495361 0.4741827 0.69970882
1108.58 5664.5801 14016.33 -0.075906709 -0.63211828 0.61419147 0.88462788
1153.29 5656.75 13996.1 -0.010525376 -0.15242141 0.59277642 0.61214948
1251.3199 5590.48 13903.82 -0.18993215 -0.45583716 0.57834703 0.76049131
82.32 5972.3398 14476.51 -0.172346 -0.0646694 -0.54192472 0.5723353
550.15002 5839.5898 14200.64 -0.3128134 -0.4220821 0.44735765 0.69002491
620.06 5763.8999 14025.77 0.2543852 0.42927501 -0.46820185 0.68425274
623.10999 5761.0698 14023.55 0.14079231 0.57545459 -0.66741472 0.8924197
720 5747.8901 14020.96 0.23718248 0.5154891 -0.51498055 0.76628292
723.70001 5746.1699 14019.86 -0.056759328 -0.0097504258 -0.41226351 0.41626659
774.76001 5734.2598 14018.65 -0.15452564 0.0026486218 0.42044377 0.44794884
781.81 5732.6201 14018.93 0.12921691 0.36024252 -0.78139699 0.87008786
894.78998 5715.5 14017.54 0.08651901 -0.064425498 -0.38455635 0.39939928
1119.49 5677.0298 14018.65 0.082809344 0.054665834 -0.5245465 0.533849
1150.17 5658.0698 13995.82 -0.28277922 -0.41187158 0.5199433 0.721071
1315.46 5570.54 13874.53 0.26861918 -0.32402101 0.27953139 0.50525606
364.48999 5870.6001 14203.79 0.15444435 0.0090706348 0.33141038 0.36574331
424.14999 5858.98 14196.98 -0.085792109 0.23240227 0.41410059 0.48254573
508.97 5859.3398 14200.65 -0.24064443 -0.34627381 0.70563948 0.82203549
551.22998 5851.0098 14197.52 -0.1875809 0.17421174 -0.59531981 0.64802933
935.44 5727 14016.79 0.049885713 0.31666344 -0.46715146 0.56656402
-27.27 6020.77 14529.41 -0.067630358 0.43703514 -0.72704172 0.85097784
52.77 5998.77 14480.66 -0.048804611 -0.43984318 0.72028238 0.84537005
227.55 5890.0601 14205.19 0.13933282 0.0069543421 -0.40971583 0.43281528
266.76001 5893.8501 14214.42 0.25545454 -0.54423141 0.66649508 0.89758593
373.01001 5880.1899 14201.23 0.021173574 -0.005674541 0.44013494 0.44068047
386.62 5880.5698 14202.33 -0.010591946 0.44750974 -0.72276187 0.85015404
446.57001 5871.6602 14202.63 -0.32661796 -0.08233995 0.020605624 0.33746666
506.01999 5871.0298 14199.28 0.024643715 0.35733393 -0.84886265 0.92133749
509.95999 5870.7598 14197.52 -0.091014564 -0.36713079 0.46990386 0.60322326
566.46002 5862.1499 14198.93 0.037898701 0.28541934 -0.24665338 0.37912849
743.13 5762.21 14020.48 0.22070499 0.15889783 -0.54654813 0.61047035
777.92999 5757.7202 14018.81 0.14070193 -0.0081285536 0.38461423 0.40962327
881.69 5743.52 14016.87 -0.16501091 -0.4493601 0.35561544 0.59633499
885.62 5743.3999 14019.92 0.18117106 0.52766716 -0.62061435 0.83451653
1099.85 5707.04 14017.98 0.35403639 -0.089446098 0.10058425 0.37876058
1302.9301 5606.27 13874.53 0.047986001 0.32494858 -0.48488447 0.58566815
1323.41 5604.21 13873.42 0.2931326 -0.45588502 0.24009532 0.59279311
44.310001 6021.8799 14479.32 -0.1084331 0.53339696 -0.72987026 0.91048378
681.47998 5781.6602 14022.21 -0.3600364 -0.39327285 0.53645146 0.75635302
766.65002 5774.3198 14022.57 0.23816547 -0.075257868 -0.23327546 0.34176597
822.59998 5751.3599 13995.71 -0.1451079 -0.53676164 0.50332606 0.75000429
1017.72 5732.1299 14020.55 0.0093964934 0.00097185373 0.33183071 0.33196515
1142.29 5703.3198 13992.92 -0.12329873 0.059618443 -0.29394013 0.32428032
1216.3 5649.6099 13904.46 0.18710391 0.70250827 -0.4623358 0.86155683
1267.34 5624.0898 13882.2 -0.10609645 0.41944447 -0.47479457 0.64235502
0.44 6042.4102 14498.9 0.099778652 0.16951063 -0.3894164 0.43627372
211.41 5913.1401 14207.33 -0.048756421 -0.51790184 0.49711153 0.71952718
215.99001 5914.3301 14206.77 0.033954825 -0.034930915 0.33602053 0.33953336
339.95001 5905.48 14201.42 0.04447737 -0.13988715 -0.42653131 0.45108271
388.67999 5903.25 14199.47 -0.052067652 -0.03957504 0.34670898 0.35282338
726.52002 5795.46 14020.86 0.052096263 0.27520275 -0.25011557 0.37551081
824.34998 5763.6401 13997.16 0.35881668 -0.28758165 0.306234 0.55247796
898.53998 5764.79 14018.66 -0.035624444 -0.096913755 -0.31507543 0.33156282
966.02002 5754.5498 14018.38 -1.3321638e-05 0.22299734 0.25525957 0.3389473
1040.95 5741.3701 14020.04 -0.1509327 0.21754575 -0.14483459 0.30180109
1135.6801 5710.0698 13992.44 -0.13872406 -0.60450131 0.70165986 0.93647891
1139.67 5707.27 13991.53 -0.0090256631 -0.28584269 -0.17293859 0.3342084
1144.73 5715.5 13994.36 0.26020664 -0.011270598 -0.31670141 0.41004184
1266.95 5637.4902 13883.41 -0.16220906 -0.67559129 0.43662965 0.82059783
1314.87 5621.0098 13872.42 0.31385043 0.1678955 -0.31682625 0.47651848
1323.17 5617.6001 13874.64 -0.035126761 0.013670236 -0.36574098 0.36767817
1326.66 5615.5498 13871.77 -0.17701334 0.047228456 -0.45708036 0.49242941
83.709999 6031.4902 14470.16 0.016608126 0.38408697 -0.59939218 0.71208823
284.82999 5916.3999 14201.44 -0.041492291 -0.63921916 0.60401857 0.88043237
288.79999 5916.21 14201.44 0.28998011 0.46798092 -0.39773414 0.67918116
371.35001 5916.9399 14200.84 -0.096794084 0.040965825 0.43362939 0.44618577
432.34 5909.29 14203.93 0.15880349 -0.0147596 0.36220041 0.39575943
436.22 5907.8501 14201.16 0.28922737 -0.60619175 -0.061065242 0.6744256
846.42999 5771.8198 13995.83 -0.024523184 -0.29220408 0.38175908 0.48137781
1017.24 5755.0698 14017.79 -0.11223429 -0.029883295 -0.27928826 0.30247557
1196.84 5678.2202 13909.33 -0.020947963 -0.039990008 -0.30330598 0.30664724
83.879997 6043.6602 14470.07 -0.17065439 -0.40187466 0.72063112 0.84257668
122.81 6019.9399 14416.84 0.17532919 -0.016357243 -0.64948493 0.6729328
310.54999 5929.73 14201.96 0.25098664 0.43099827 -0.65796489 0.82563406
557.40997 5910.54 14197.43 -0.053431496 0.36374807 -0.47070411 0.5972687
656.12 5896.9702 14198.85 0.240468 -0.37833664 -0.42294312 0.61631513
783.81 5797.0601 13998.91 -0.06299153 -0.004453063 0.43845883 0.44298294
1007.24 5769.4502 14019.21 -0.013333224 -0.035149515 0.35196948 0.35397142
1215.9 5684.8101 13896.75 -0.15949044 -0.43859869 0.67942673 0.82427341
1274.99 5655.5098 13873.61 -0.15912361 -0.35968572 0.19128355 0.43735975
105.18 6035.6602 14418.65 -0.037624761 0.43686432 -0.7619704 0.87912738
186.86 5944.6602 14206.12 0.15330064 0.048518956 -0.38770533 0.41972679
369.54999 5942.9302 14203.26 0.38377762 -0.68457007 -0.074161403 0.78830284
455 5929.8501 14199.64 0.11051841 -0.28545833 0.54397559 0.62418765
550.88 5926.3398 14201.07 -0.16903803 -0.3705999 0.4480308 0.60551608
641.15997 5917.3599 14199.4 0.068083987 -0.056505024 -0.56160355 0.56853038
780.53998 5806.3901 13993.59 -0.0024064258 0.0014428794 0.44799644 0.44800523
890.16998 5795.02 13998.38 0.12800384 0.2013945 -0.53528869 0.58607054
893.96002 5793.7598 13998.66 0.33765522 0.60186344 -0.47733358 0.83910549
1069.52 5778.9302 14020.67 0.34223458 -0.40041092 -0.044102579 0.52858156
205.14999 5962.0898 14205.17 0.064172603 0.13376623 0.32414654 0.35648635
512.81 5943.2202 14198.69 0.02093746 0.49564454 -0.31287789 0.58651042
556.35999 5935.98 14198.45 0.073174559 0.45873401 -0.69835669 0.83874518
578.03998 5934.4902 14199.84 0.13828748 0.53994876 -0.27667326 0.62226701
971.06 5805.0498 14018.67 0.28029719 -0.37901565 0.32334054 0.57163668
1024.1 5790.6201 14017.5 -0.2130672 -0.54304057 0.69150108 0.90469021
1112.1899 5768.0601 13995.26 0.24359682 0.28436923 -0.51905221 0.64001596
1200.3 5710.8599 13895.66 -0.17847627 0.34344542 0.047782272 0.38998935
1219.95 5703.7798 13886.99 -0.21716692 0.057804883 -0.38371766 0.44468203
1280.03 5677.8701 13872.36 -0.13303789 -0.41851506 0.73905247 0.85968161
1317.96 5666.0498 13822.33 0.16482663 0.062854201 0.27853471 0.32969692
1332.3101 5653.9702 13822.54 0.32539403 -0.016487688 -0.2937811 0.43870315
88.339996 6070.9902 14418.89 0.13806564 -0.076851219 0.36856198 0.40100643
330.75 5964.9302 14170.15 -0.25985101 0.67859018 -0.18858722 0.75071454
519.03998 5968.6099 14201.05 0.13244668 0.48149884 -0.47516626 0.68932301
1266.65 5712.8901 13874.07 -0.033010781 0.52324975 -0.047830921 0.52646732
1320.61 5677.4399 13822.29 0.35048637 0.26286477 -0.74095941 0.86079001
497.56 5973.6899 14203.05 -0.047055863 0.30736697 -0.4591215 0.55450988
678.26001 5935.4302 14158.66 -0.049006958 0.77131128 -0.59823722 0.97734874
1009.62 5829.2798 14017.5 -0.01330705 -0.083651811 -0.33730322 0.34777603
1017.9 5827.21 14016.03 -0.13178387 -0.49230331 0.58765322 0.77785981
1080.4399 5812.98 13994.13 -0.091725402 -0.15287721 0.54902935 0.57725054
1268.9399 5723.2002 13871.24 0.36270994 0.33852929 -0.56196296 0.7496419
267.38 5983.6899 14165.31 0.12879954 -0.47711772 0.6006847 0.7778514
394.78 5987.1899 14167.48 0.12532502 0.40500045 -0.83979052 0.94073367
460.29999 5991.4502 14201.82 -0.05123201 -0.50989151 0.41912934 0.6620298
561.64001 5986.1299 14202.05 0.091957994 -0.37354648 0.62992197 0.73810226
1209.14 5752.9302 13884.16 -0.27247182 -0.41611186 0.55108845 0.74235332
1265.66 5726.6099 13871.87 0.2765584 0.065300092 -0.21974063 0.35921386
-21.92 6137.4902 14482.13 0.24918826 0.079372823 0.22940195 0.34787941
-17.799999 6136.9199 14480.75 -0.0062247002 -0.49777284 0.50176656 0.70681411
24 6141.4702 14472.19 0.18719505 0.76553762 -0.55997652 0.96677995
584.48999 5994.79 14199.1 0.0096559338 -0.10946134 0.31566676 0.33424622
739.19 5891.9902 13994.9 0.19753121 -0.030661613 0.30509979 0.3647528
1232.09 5757.8301 13875.22 -0.091471903 -0.0017307699 -0.44244459 0.45180452
665.84003 5973.9399 14151.3 0.42555863 0.50656277 -0.61902416 0.90603358
1255.05 5759.79 13868.98 -0.018441409 0.11447003 0.30058858 0.32217538
-40.34 6164.1099 14489.04 -0.26667717 0.14411649 0.1003415 0.31930345
444.72 6015.02 14167.47 -0.028715964 -0.0031891167 0.43857652 0.43952718
719.62 5910.25 13996.47 -0.10022807 0.64394659 -0.028415684 0.65231919
819.01001 5862.5601 13893.42 -0.22304988 0.47168297 -0.20796025 0.56167924
1063.55 5859.6201 13992.49 0.23080935 0.44142288 -0.45672324 0.67581302
1178.67 5789.73 13889.73 0.048894614 0.051319107 -0.3872852 0.39371836
1237.1801 5778.9399 13870.88 0.29056111 0.3995215 -0.42281973 0.6502459
459.42001 6025.3101 14165.89 0.050090633 0.63389248 -0.58461535 0.86377299
562.21002 6035.6602 14200.95 0.088633053 0.13845661 -0.62338293 0.64469552
566.25 6035.1802 14202.62 -0.14315784 -0.28623831 0.027742356 0.32124162
668.09998 5994.1699 14142.64 0.3380855 -0.13656493 -0.19711149 0.41449332
726.38 5932.5698 13998.31 0.053973414 -0.31113887 0.44702157 0.54731053
1225.34 5788.6699 13874.5 -0.22694021 0.37931275 0.14615683 0.46555543
576.01001 6045.7402 14201.11 -0.18817469 -0.49837139 0.64599359 0.83731204
628.35999 6025.6899 14160.97 0.12721789 0.65926653 -0.58692515 0.8917948
797.12 5886.9902 13902.52 -0.050610624 -0.037337989 0.32722533 0.33321461
837.14001 5869.1299 13879.56 -0.016459957 0.16641441 -0.37108147 0.40702105
862.22998 5867.8398 13886.83 0.17487787 -0.021548599 -0.25759539 0.31209293
902.37 5870.6899 13896.35 -0.29426277 -0.41817874 0.55090243 0.75163656
1312.84 5397.23 12997.22 0.42727762 -0.051655769 -0.34302124 0.55036175
632.62 6027.2998 14160.1 -0.071212374 -0.35216746 0.84771669 0.92071533
653.95001 6024.6401 14138.62 -0.2720564 -0.59479672 0.37138695 0.75214761
1164.83 5827.4399 13885.13 0.41391921 -0.40859178 -0.19780608 0.61433184
1181.63 5824.25 13880.04 0.14761467 0.44156846 -0.54197407 0.71449894
1223.5 5818.5 13873.82 0.077356234 0.1549063 0.41317379 0.44798723
236.55 6077.7202 14160.61 0.04603656 -0.78910762 0.59498537 0.98935217
704.45001 5961.7998 13996.92 -0.092049845 -0.4637011 0.33718681 0.58067793
807.57001 5904.54 13891.21 0.30809501 0.16358334 -0.47569001 0.58988392
1320.1801 5600.1201 13416.64 0.23042063 -0.49489743 -0.11765491 0.55844408
470.91 6060.9902 14140.37 -0.11248772 0.21624416 0.32112584 0.40315858
801.07001 5916.1802 13886.63 0.15453809 -0.53522086 0.75588739 0.93899375
970.81 5900.8301 13898.88 0.21158566 0.4037655 -0.81775874 0.93622887
1031.11 5896.21 13926.43 -0.20921211 -0.5229193 0.69405663 0.89382821
1186.4 5844.8999 13874.33 -0.32472944 0.42466798 -0.19091585 0.56766272
1195.15 5850.5698 13871.19 -0.011790544 0.045580178 -0.32521585 0.32860604
1199.62 5849.5801 13872.85 0.19455746 0.58824116 -0.46052742 0.77198815
-67.139999 6238.7598 14483.53 -0.12587133 -0.44821227 0.61771798 0.77350712
-62.93 6236.1299 14483.05 -0.25374439 -0.47179756 0.50147456 0.73379552
211.75 6103.0698 14165.01 -0.036149342 -0.0010379553 -0.45508367 0.45651835
331.63 6033.27 14024.95 0.05188711 -0.35607529 -0.15284279 0.39095116
335.82999 6035.7202 14023.79 0.019781463 -0.36447603 -0.1557599 0.3968567
844.12 5913.98 13873.37 -0.085516252 0.15239719 0.32224393 0.36657751
972.14001 5908.9302 13890.44 0.32462156 0.58515048 -0.57837874 0.88447851
-39.669998 6244.9102 14474.34 0.18274939 -0.1418933 -0.28619745 0.36802176
318.45001 6047.3301 14022.58 0.2903249 0.12552956 -0.6399197 0.71382314
571.92999 6089.5298 14159.24 0.11131571 0.44779274 -0.69258887 0.8322193
594.92999 6089.75 14164.84 0.37312001 -0.00093093514 -0.10740189 0.38827127
866.71997 5922.0601 13870.16 0.39867926 -0.50375378 0.10241692 0.65053999
1324.03 5614.04 13370.59 -0.11219144 0.024256229 -0.29768974 0.31905246
-16.950001 6256.21 14467.87 -0.015836006 -0.30062044 0.4637205 0.55286539
149.62 6148.8799 14212.58 0.062218465 -0.46999267 0.71879911 0.861067
315.79999 6063.27 14024.03 -0.19800474 -0.35888359 0.78635067 0.88676411
319.14001 6060.4102 14025.19 -0.098422512 -0.41274431 0.49311081 0.65054065
1026.83 5921.9199 13900.92 0.16144106 0.14093012 -0.36361459 0.42206645
-103.72 6279.79 14493.8 0.052670121 0.14768496 -0.33365867 0.36866394
577.46997 6104.5098 14140.9 -0.055314943 -0.49251303 0.51156932 0.71227241
655.88 6036.9502 13998.65 0.019165948 -0.096340597 -0.30143234 0.31703359
660.51001 6036.4399 13998.65 -0.0017740726 0.13320196 0.33803496 0.36333668
1032.87 5929.73 13895.5 -0.12657736 0.16290998 0.33927193 0.39707297
-103.87 6289.02 14486.53 -0.31399837 -0.57485479 0.49687925 0.82215691
269.26001 6091.3901 14022.85 0.019110551 0.042104334 0.31379688 0.31718522
281.12 6082.1401 14024.88 -0.11820043 0.82562113 -0.47342262 0.95903623
402.70999 6080.8301 14019.21 -0 0.5 -0.5 0.70710677
653.90002 6051.1401 13997.63 0.18808161 0.64175588 -0.65248626 0.93432522
669.98999 6042.7402 13997.12 0.18385947 -0.24719022 -0.23521651 0.38760045
