# .PCD v0.7 - Point Cloud Data file format
VERSION 0.7
FIELDS x y z
SIZE 4 4 4
TYPE F F F
COUNT 1 1 1
WIDTH 1742
HEIGHT 1
VIEWPOINT 0 0 0 1 0 0 0
POINTS 1742
DATA ascii
69.488998 -20.110001 0.56
69.488998 -20.099001 0.5
69.518997 -20.16 0.50999999
69.518997 -20.16 0.47999999
69.549004 -20.24 0.50999999
69.558998 -20.25 0.47999999
69.539001 -20.219 0.41999999
69.549004 -20.229 0.38999999
69.558998 -20.259001 0.37
69.440002 -19.75 1.4299999
69.459 -19.799 1.39
69.488998 -19.870001 1.39
69.448997 -19.768999 1.3099999
69.510002 -19.91 1.15
69.5 -19.879 1.1
69.518997 -19.929001 1.1
69.528999 -19.950001 1.0700001
69.539001 -19.979 1.0599999
69.539001 -19.969 1.03
69.539001 -19.99 1
69.558998 -20.018999 1
69.558998 -20.009001 0.94999999
69.588997 -20.099001 0.98000002
69.588997 -20.089001 0.93000001
69.598999 -20.110001 0.92000002
69.609001 -20.139 0.89999998
69.598999 -20.110001 0.44999999
69.598999 -20.099001 0.38999999
69.619003 -20.169001 0.41999999
69.639 -20.209 0.41999999
69.649002 -20.229 0.38999999
69.57 -19.799 1.42
69.57 -19.799 1.39
69.588997 -19.849001 1.37
69.418999 -19.459 0.94999999
69.469002 -19.58 1
69.598999 -19.870001 1.12
69.57 -19.790001 1.0599999
69.588997 -19.839001 1.04
69.629997 -19.950001 1.0700001
69.579002 -19.839001 0.98000002
69.549004 -19.768999 0.88999999
69.609001 -19.899 0.94999999
69.690002 -20.089001 1.03
69.668999 -20.030001 0.95999998
69.690002 -20.089001 0.95999998
69.668999 -20.030001 0.88999999
69.679001 -20.059 0.87
69.639 -19.979 0.60000002
69.658997 -20 0.38999999
69.679001 -20.059 0.40000001
69.709 -20.139 0.41999999
69.728996 -20.16 0.41999999
69.738998 -20.200001 0.41999999
69.649002 -19.75 1.42
69.658997 -19.768999 1.39
69.649002 -19.759001 1.35
69.57 -19.559 0.89999998
69.738998 -19.950001 1.1
69.738998 -19.959 1.01
69.668999 -19.799 0.87
69.75 -19.979 0.94999999
69.75 -19.969 0.92000002
69.778999 -20.040001 0.93000001
69.709 -19.889 0.34
69.760002 -19.99 0.38999999
69.778999 -20.059 0.40000001
69.799004 -20.099001 0.38999999
69.82 -20.149 0.40000001
69.760002 -19.768999 1.45
69.760002 -19.759001 0.98000002
69.808998 -19.870001 1
69.829002 -19.919001 0.98000002
69.778999 -19.799 0.87
69.808998 -19.889 0.88999999
69.848999 -19.979 0.92000002
69.848999 -19.969 0.88999999
69.848999 -19.959 0.83999997
69.808998 -19.870001 0.75
69.879997 -20.030001 0.81999999
69.829002 -19.919001 0.70999998
69.838997 -19.950001 0.69999999
69.859001 -19.99 0.62
69.838997 -19.950001 0.43000001
69.859001 -20 0.43000001
69.869003 -20.018999 0.41999999
69.899002 -20.08 0.41999999
69.82 -19.669001 1.42
69.808998 -19.629 1.37
69.799004 -19.620001 1.34
69.760002 -19.530001 1.0599999
69.799004 -19.599001 1
69.889 -19.82 1.03
69.908997 -19.870001 1.03
69.869003 -19.768999 0.92000002
69.889 -19.809 0.92000002
69.899002 -19.839001 0.89999998
69.929001 -19.91 0.92000002
69.940002 -19.919001 0.88999999
69.908997 -19.870001 0.81
69.908997 -19.870001 0.77999997
69.918999 -19.889 0.75999999
69.918999 -19.889 0.73000002
69.918999 -19.899 0.69999999
69.929001 -19.91 0.67000002
69.940002 -19.929001 0.63999999
69.948997 -19.950001 0.62
69.940002 -19.938999 0.58999997
69.929001 -19.919001 0.52999997
69.929001 -19.899 0.43000001
69.940002 -19.929001 0.41999999
69.959 -19.969 0.41999999
69.959 -19.99 0.38999999
69.988998 -20.049 0.40000001
69.889 -19.57 1.4
69.848999 -19.5 1.34
69.879997 -19.549 1.3200001
69.789001 -19.339001 1.04
69.848999 -19.49 1.09
69.889 -19.589001 1.12
69.918999 -19.639 1.12
69.940002 -19.688999 1.1
69.908997 -19.639 1.04
69.940002 -19.700001 1.04
69.918999 -19.639 0.94999999
69.988998 -19.809 1.01
69.948997 -19.719 0.92000002
69.969002 -19.768999 0.92000002
69.988998 -19.82 0.92000002
69.969002 -19.768999 0.85000002
70.010002 -19.849001 0.87
69.988998 -19.799 0.81
70 -19.83 0.77999997
70 -19.839001 0.75
70 -19.839001 0.73000002
70.010002 -19.849001 0.69999999
70.018997 -19.870001 0.67000002
70.018997 -19.870001 0.63999999
70.018997 -19.889 0.62
70.028999 -19.889 0.58999997
70.028999 -19.899 0.56
70.028999 -19.91 0.50999999
70 -19.83 0.41999999
70.028999 -19.899 0.43000001
70.028999 -19.899 0.40000001
70.049004 -19.950001 0.40000001
70.07 -19.979 0.38999999
69.940002 -19.459 1.37
69.959 -19.49 1.35
69.948997 -19.479 1.3099999
69.948997 -19.479 1.14
69.908997 -19.389 1.0599999
69.978996 -19.540001 1.12
69.978996 -19.540001 1.09
69.969002 -19.530001 1.04
69.988998 -19.57 1.03
70.049004 -19.719 1.09
69.988998 -19.57 0.95999998
70.028999 -19.649 0.98000002
70.07 -19.75 1
70.039001 -19.679001 0.93000001
70.058998 -19.729 0.93000001
70.039001 -19.679001 0.85000002
70.058998 -19.729 0.85000002
70.079002 -19.790001 0.87
70.07 -19.759001 0.81
70.07 -19.759001 0.77999997
70.079002 -19.780001 0.75
70.079002 -19.790001 0.73000002
70.088997 -19.790001 0.69999999
70.088997 -19.799 0.67000002
70.088997 -19.809 0.62
70.119003 -19.860001 0.63999999
70.109001 -19.839001 0.58999997
70.109001 -19.849001 0.56
70.109001 -19.839001 0.5
70.088997 -19.799 0.43000001
70.119003 -19.860001 0.44999999
70.129997 -19.889 0.43000001
70.149002 -19.929001 0.41999999
70.158997 -19.959 0.41999999
70 -19.370001 1.3099999
70.039001 -19.450001 1.3200001
70.088997 -19.559 1.25
70 -19.349001 1.1
70.010002 -19.389 1.09
70.088997 -19.559 1.15
70.07 -19.509001 1.09
70.058998 -19.5 1.0599999
70.058998 -19.49 1.01
70.07 -19.509001 1
70.109001 -19.599001 0.94999999
70.109001 -19.610001 0.92000002
70.149002 -19.688999 0.93000001
70.129997 -19.649 0.87
70.158997 -19.709 0.87
70.149002 -19.709 0.83999997
70.149002 -19.700001 0.81
70.158997 -19.709 0.77999997
70.158997 -19.719 0.75
70.158997 -19.729 0.70999998
70.168999 -19.74 0.68000001
70.168999 -19.74 0.64999998
70.179001 -19.768999 0.63999999
70.198997 -19.82 0.63999999
70.190002 -19.790001 0.56999999
70.179001 -19.768999 0.52999997
70.179001 -19.768999 0.47999999
70.209 -19.82 0.5
70.179001 -19.759001 0.40000001
70.209 -19.83 0.41999999
70.228996 -19.879 0.41999999
70.119003 -19.379 1.34
70.25 -19.688999 1
70.268997 -19.74 1
70.260002 -19.709 0.94999999
70.228996 -19.649 0.87
70.228996 -19.639 0.81999999
70.238998 -19.669001 0.81
70.260002 -19.709 0.81
70.260002 -19.709 0.77999997
70.25 -19.679001 0.70999998
70.25 -19.700001 0.69999999
70.238998 -19.669001 0.63999999
70.238998 -19.66 0.58999997
70.260002 -19.709 0.58999997
70.268997 -19.74 0.58999997
70.268997 -19.74 0.41999999
70.278999 -19.75 0.38999999
70.299004 -19.790001 0.38999999
70.32 -19.839001 0.38999999
70.299004 -19.559 0.94999999
70.338997 -19.66 0.92000002
70.359001 -19.700001 0.89999998
70.278999 -19.518999 0.75
70.329002 -19.629 0.41999999
70.348999 -19.669001 0.41999999
70.359001 -19.700001 0.40000001
70.389 -19.759001 0.41999999
70.399002 -19.780001 0.38999999
70.399002 -19.559 0.38999999
70.429001 -19.610001 0.40000001
70.459 -19.688999 0.41999999
70.469002 -19.719 0.41999999
70.459 -19.688999 0.34999999
70.379997 -19.268999 0.92000002
70.510002 -19.559 0.69999999
70.478996 -19.49 0.38999999
70.518997 -19.58 0.41999999
70.518997 -19.599001 0.38999999
70.528999 -19.610001 0.37
70.539001 -19.620001 0.34
70.418999 -19.129 1.25
70.510002 -19.32 1.3200001
70.510002 -19.32 0.98000002
70.518997 -19.360001 0.98000002
70.518997 -19.349001 0.94999999
70.579002 -19.49 0.46000001
70.57 -19.469 0.40000001
70.588997 -19.5 0.38999999
70.588997 -19.518999 0.37
70.598999 -19.540001 0.34
70.609001 -19.559 0.31999999
70.518997 -19.120001 1
70.579002 -19.24 1.03
70.588997 -19.280001 1.03
70.579002 -19.24 0.93000001
70.598999 -19.290001 0.92000002
70.588997 -19.280001 0.88999999
70.588997 -19.268999 0.83999997
70.619003 -19.339001 0.85000002
70.629997 -19.370001 0.83999997
70.629997 -19.370001 0.81
70.639 -19.379 0.77999997
70.629997 -19.370001 0.75
70.649002 -19.41 0.73000002
70.639 -19.389 0.67000002
70.649002 -19.399 0.64999998
70.658997 -19.429001 0.63999999
70.619003 -19.339001 0.52999997
70.658997 -19.419001 0.56
70.668999 -19.450001 0.52999997
70.639 -19.399 0.46000001
70.639 -19.389 0.41999999
70.679001 -19.49 0.46000001
70.668999 -19.450001 0.38999999
70.679001 -19.479 0.37
70.668999 -19.450001 0.31
70.668999 -19.459 0.28
70.619003 -19.110001 0.77999997
70.649002 -19.169001 0.77999997
70.658997 -19.188999 0.75
70.668999 -19.209 0.73000002
70.698997 -19.290001 0.70999998
70.719002 -19.339001 0.60000002
69.558998 -20.759001 0.28999999
69.889 -20.469 0.67000002
69.168999 -20.860001 0.69999999
69.058998 -20.75 0.28
69.098999 -20.709 0.67000002
68.929001 -20.620001 0.25
68.959 -20.58 0.63999999
68.899002 -20.399 0.23
68.899002 -20.389 0.62
68.768997 -20.280001 0.2
68.778999 -20.259001 0.58999997
68.668999 -20.149 0.14
68.649002 -20.16 0.52999997
68.598999 -19.959 0.50999999
69.338997 -20.129 0.92000002
69.379997 -20.089001 1.28
69.268997 -19.919001 0.98000002
68.619003 -19.299 1.12
68.609001 -19.349001 1.1
68.629997 -19.399 1.1
68.629997 -19.450001 1.09
68.329002 -18.979 1.03
68.399002 -19.059 1.04
68.558998 -19.16 1.0700001
68.629997 -19.24 1.09
68.629997 -19.290001 1.09
68.57 -19.32 1.0599999
68.679001 -19.399 1.09
68.75 -19.469 1.09
68.728996 -19.509001 1.09
68.879997 -19.599001 1.12
68.75 -19.610001 1.0700001
68.768997 -19.66 1.0700001
68.75 -19.709 1.0599999
68.778999 -19.759001 1.0599999
68.778999 -19.809 1.0599999
68.869003 -19.879 1.0700001
68.518997 -18.969 1.0599999
68.539001 -19.040001 1.0599999
68.629997 -19.110001 1.0700001
68.679001 -19.179001 1.0700001
68.728996 -19.25 1.09
68.838997 -19.33 1.12
68.82 -19.370001 1.1
68.848999 -19.429001 1.09
68.908997 -19.5 1.12
68.859001 -19.530001 1.09
68.869003 -19.58 1.09
68.859001 -19.620001 1.0700001
68.899002 -19.679001 1.09
68.879997 -19.719 1.0599999
68.908997 -19.780001 1.0599999
68.948997 -19.83 1.0700001
68.940002 -19.879 1.0599999
68.908997 -19.91 1.04
68.859001 -19.950001 1.03
68.829002 -19.99 1.01
68.639 -18.938999 1.0599999
68.719002 -19.018999 1.09
68.82 -19.110001 1.1
68.859001 -19.169001 1.1
68.808998 -19.200001 1.09
68.799004 -19.25 1.0700001
68.889 -19.32 1.09
68.908997 -19.379 1.09
68.978996 -19.450001 1.1
68.940002 -19.479 1.09
68.929001 -19.530001 1.09
68.978996 -19.589001 1.09
69.058998 -19.66 1.1
69.088997 -19.709 1.1
69.109001 -19.759001 1.1
69.018997 -19.780001 1.0700001
69.028999 -19.83 1.0599999
68.988998 -19.870001 1.04
68.879997 -19.889 1.01
68.889 -19.938999 1
68.889 -19.99 1
68.859001 -20.030001 0.98000002
68.869003 -20.08 0.98000002
68.679001 -18.879 1.0599999
68.82 -18.979 1.09
68.889 -19.059 1.09
68.82 -19.08 1.0700001
68.918999 -19.169001 1.09
68.929001 -19.219 1.09
68.879997 -19.25 1.0599999
68.969002 -19.33 1.09
68.940002 -19.370001 1.0700001
68.918999 -19.41 1.0599999
69.058998 -19.5 1.09
69.088997 -19.549 1.09
69.109001 -19.599001 1.09
69.179001 -19.669001 1.1
69.088997 -19.688999 1.0700001
69.158997 -19.75 1.09
69.149002 -19.799 1.0700001
69.039001 -19.82 1.03
69.098999 -19.879 1.0599999
68.869003 -19.879 0.98000002
68.879997 -19.919001 0.98000002
68.859001 -19.969 0.94999999
68.838997 -20.009001 0.94999999
68.859001 -20.059 0.94999999
68.848999 -20.110001 0.93000001
68.879997 -20.16 0.93000001
68.838997 -18.860001 1.0700001
68.908997 -18.938999 1.09
68.918999 -18.99 1.09
68.918999 -19.040001 1.0700001
68.969002 -19.110001 1.09
69.079002 -19.188999 1.1
69.010002 -19.219 1.09
69.088997 -19.290001 1.09
69.07 -19.339001 1.09
69.119003 -19.399 1.09
69.179001 -19.509001 1.09
69.198997 -19.559 1.09
69.158997 -19.599001 1.0700001
69.25 -19.669001 1.09
69.168999 -19.688999 1.0599999
69.198997 -19.75 1.0599999
69.168999 -19.790001 1.0599999
69.129997 -19.82 1.03
69.158997 -19.969 1.03
68.838997 -19.950001 0.92000002
68.789001 -19.99 0.88999999
68.848999 -20.049 0.89999998
68.869003 -20.099001 0.89999998
68.908997 -20.149 0.92000002
68.879997 -20.200001 0.88999999
68.889 -18.809 1.0599999
68.978996 -18.889 1.09
68.978996 -18.938999 1.0700001
69.058998 -19.018999 1.09
69.07 -19.07 1.09
69.088997 -19.129 1.09
69.168999 -19.200001 1.1
69.079002 -19.219 1.0599999
69.209 -19.309 1.09
69.209 -19.360001 1.09
69.25 -19.41 1.09
69.299004 -19.469 1.1
69.268997 -19.509001 1.09
69.338997 -19.58 1.1
69.179001 -19.58 1.0599999
69.278999 -19.649 1.0700001
69.338997 -19.709 1.09
69.238998 -19.74 1.04
68.899002 -19.709 0.93000001
68.799004 -19.979 0.87
68.929001 -20.049 0.89999998
68.848999 -20.08 0.87
68.889 -20.139 0.87
68.929001 -20.188999 0.87
68.929001 -20.24 0.87
68.940002 -20.290001 0.87
69.028999 -18.780001 1.0700001
69.028999 -18.83 1.0700001
69.149002 -18.929001 1.09
69.158997 -18.979 1.09
69.129997 -19.018999 1.0700001
69.168999 -19.08 1.09
69.260002 -19.16 1.1
69.209 -19.188999 1.09
69.278999 -19.259001 1.09
69.260002 -19.299 1.09
69.289001 -19.360001 1.09
69.379997 -19.429001 1.1
69.338997 -19.469 1.09
69.299004 -19.509001 1.0599999
69.359001 -19.57 1.0700001
69.369003 -19.620001 1.0700001
69.379997 -19.66 1.0599999
69.268997 -19.679001 1.03
69.348999 -19.75 1.04
69.228996 -19.860001 1
69.278999 -19.919001 1
68.978996 -20.049 0.88999999
68.848999 -20.08 0.83999997
68.918999 -20.139 0.85000002
68.899002 -20.179001 0.83999997
68.988998 -20.24 0.85000002
68.988998 -20.290001 0.85000002
68.969002 -20.33 0.83999997
68.889 -20.370001 0.81
69 -18.700001 1.04
69 -18.75 1.04
69.139 -18.849001 1.0700001
69.158997 -18.91 1.0700001
69.268997 -19 1.09
69.32 -19.059 1.1
69.228996 -19.08 1.0599999
69.408997 -19.188999 1.12
69.338997 -19.209 1.09
69.348999 -19.259001 1.09
69.408997 -19.33 1.09
69.418999 -19.379 1.09
69.408997 -19.419001 1.09
69.448997 -19.479 1.09
69.440002 -19.518999 1.0700001
69.389 -19.559 1.0599999
69.469002 -19.620001 1.0700001
69.418999 -19.66 1.0599999
69.399002 -19.929001 1
69.32 -19.959 0.98000002
68.959 -20.040001 0.83999997
69.058998 -20.099001 0.87
68.879997 -20.120001 0.81
68.879997 -20.169001 0.81
68.918999 -20.229 0.81
68.929001 -20.280001 0.81
68.948997 -20.33 0.81
68.978996 -20.379 0.81
68.929001 -20.419001 0.77999997
69.098999 -18.66 1.0599999
69.168999 -18.74 1.0599999
69.268997 -18.82 1.09
69.179001 -18.839001 1.0599999
69.268997 -18.919001 1.0700001
69.289001 -18.979 1.0599999
69.418999 -19.07 1.09
69.329002 -19.089001 1.0599999
69.418999 -19.169001 1.09
69.478996 -19.229 1.09
69.5 -19.290001 1.09
69.418999 -19.309 1.0599999
69.488998 -19.379 1.09
69.478996 -19.419001 1.0700001
69.549004 -19.479 1.09
69.448997 -19.509001 1.04
69.510002 -19.57 1.0599999
69.469002 -19.599001 1.04
68.440002 -19.41 0.73000002
69.469002 -19.700001 1.03
69.32 -19.938999 0.94999999
69.198997 -20.018999 0.88999999
68.879997 -20.009001 0.77999997
68.948997 -20.120001 0.79000002
68.838997 -20.16 0.75
68.908997 -20.219 0.75999999
68.978996 -20.268999 0.77999997
68.969002 -20.32 0.77999997
68.929001 -20.370001 0.75
69.058998 -20.429001 0.77999997
69.010002 -20.469 0.75999999
69.139 -20.530001 0.81
69.190002 -18.620001 1.0599999
69.209 -18.679001 1.0599999
69.268997 -18.75 1.0599999
69.32 -18.82 1.0599999
69.338997 -18.870001 1.0599999
69.359001 -18.929001 1.0599999
69.429001 -19 1.0700001
69.448997 -19.059 1.0700001
69.5 -19.120001 1.09
69.459 -19.16 1.0599999
69.488998 -19.219 1.0599999
69.518997 -19.268999 1.0599999
69.518997 -19.32 1.0599999
69.528999 -19.370001 1.0599999
69.629997 -19.438999 1.09
69.629997 -19.49 1.0700001
69.558998 -19.518999 1.04
69.408997 -19.530001 1
68.379997 -19.339001 0.68000001
68.338997 -19.379 0.67000002
68.329002 -19.429001 0.64999998
69.389 -19.899 0.93000001
69.308998 -19.929001 0.89999998
69.058998 -19.99 0.81
69.129997 -20.049 0.83999997
69.109001 -20.089001 0.81
69 -20.120001 0.77999997
68.929001 -20.169001 0.75
68.929001 -20.219 0.75
69.190002 -20.290001 0.81
69.119003 -20.33 0.77999997
69.168999 -20.389 0.79000002
69.119003 -20.429001 0.77999997
69.129997 -20.479 0.77999997
69.139 -20.530001 0.75999999
69.129997 -20.58 0.75
69.198997 -20.629 0.77999997
69.139 -20.669001 0.75
69.209 -20.719 0.75999999
69.289001 -20.768999 0.77999997
69.168999 -18.540001 1.03
69.308998 -18.639 1.0599999
69.25 -18.669001 1.03
69.369003 -18.759001 1.0599999
69.448997 -18.839001 1.0700001
69.379997 -18.870001 1.04
69.408997 -18.929001 1.04
69.418999 -18.979 1.04
69.549004 -19.07 1.0700001
69.579002 -19.129 1.0700001
69.579002 -19.179001 1.0599999
69.629997 -19.24 1.0700001
69.668999 -19.290001 1.09
69.619003 -19.33 1.0599999
69.619003 -19.370001 1.0599999
69.629997 -19.419001 1.04
69.639 -19.469 1.04
69.459 -19.479 0.98000002
68.488998 -19.299 0.68000001
68.348999 -19.32 0.63999999
68.359001 -19.379 0.63999999
68.348999 -19.429001 0.62
68.348999 -19.49 0.62
68.619003 -19.599001 0.69999999
68.399002 -19.610001 0.62
68.789001 -19.729 0.73000002
68.789001 -19.790001 0.70999998
68.978996 -19.870001 0.77999997
69.25 -19.959 0.83999997
69.149002 -19.99 0.81
69.07 -20.030001 0.77999997
69.088997 -20.08 0.77999997
69.018997 -20.120001 0.75
68.978996 -20.169001 0.73000002
69.179001 -20.24 0.77999997
69.179001 -20.290001 0.77999997
69.190002 -20.339001 0.77999997
69.149002 -20.379 0.75
69.179001 -20.429001 0.75
69.228996 -20.49 0.75999999
69.32 -20.540001 0.79000002
69.260002 -20.58 0.75999999
69.260002 -20.629 0.75
69.32 -20.679001 0.77999997
69.308998 -20.729 0.75999999
69.278999 -20.780001 0.75
69.348999 -20.83 0.75999999
69.158997 -18.450001 1
69.190002 -18.518999 1
69.228996 -18.589001 1
69.32 -18.669001 1.01
69.359001 -18.74 1.03
69.338997 -18.780001 1
69.408997 -18.849001 1.01
69.440002 -18.919001 1.03
69.5 -18.979 1.03
69.528999 -19.040001 1.03
69.510002 -19.089001 1.03
69.619003 -19.169001 1.04
69.639 -19.219 1.04
69.668999 -19.280001 1.04
69.658997 -19.32 1.03
69.668999 -19.370001 1.03
69.760002 -19.438999 1.0599999
69.168999 -19.339001 0.87
68.679001 -19.268999 0.70999998
68.539001 -19.299 0.67000002
68.389 -19.32 0.62
68.348999 -19.370001 0.58999997
68.488998 -19.450001 0.63999999
68.289001 -19.469 0.56
68.528999 -19.57 0.62
68.738998 -19.66 0.68000001
68.549004 -19.679001 0.62
68.768997 -19.768999 0.67000002
69.119003 -19.879 0.77999997
69.179001 -19.938999 0.79000002
69.168999 -19.99 0.77999997
69.139 -20.030001 0.75999999
69.139 -20.08 0.75999999
69.058998 -20.120001 0.73000002
69.179001 -20.188999 0.75
69.238998 -20.24 0.77999997
69.32 -20.299 0.77999997
69.399002 -20.349001 0.81
69.338997 -20.399 0.77999997
69.359001 -20.450001 0.77999997
69.359001 -20.49 0.77999997
69.359001 -20.540001 0.75999999
69.440002 -20.589001 0.77999997
69.379997 -20.639 0.75999999
69.429001 -20.688999 0.77999997
69.488998 -20.729 0.77999997
69.459 -20.780001 0.75999999
69.389 -20.83 0.73000002
69.299004 -20.870001 0.69999999
69.149002 -18.370001 0.95999998
69.190002 -18.438999 0.95999998
69.129997 -18.469 0.94999999
69.219002 -18.559 0.95999998
69.238998 -18.620001 0.95999998
69.408997 -18.729 1
69.418999 -18.790001 1
69.389 -18.83 0.98000002
69.510002 -18.919001 1
69.558998 -18.979 1.01
69.5 -19.009001 1
69.539001 -19.07 1
69.619003 -19.149 1.01
69.579002 -19.179001 1
69.668999 -19.259001 1.01
69.690002 -19.309 1.01
69.778999 -19.379 1.03
69.719002 -19.41 1.01
68.760002 -19.229 0.70999998
68.639 -19.259001 0.67000002
68.549004 -19.290001 0.63999999
68.5 -19.33 0.62
68.348999 -19.360001 0.56
68.359001 -19.419001 0.56
68.338997 -19.469 0.54000002
68.5 -19.559 0.58999997
68.399002 -19.589001 0.54000002
68.57 -19.679001 0.58999997
68.668999 -19.75 0.62
69.238998 -19.889 0.77999997
69.219002 -19.938999 0.77999997
69.209 -19.99 0.75999999
69.190002 -20.040001 0.75
69.149002 -20.08 0.73000002
69.528999 -20.169001 0.83999997
69.408997 -20.209 0.79000002
69.338997 -20.25 0.75999999
69.440002 -20.309 0.79000002
69.429001 -20.349001 0.77999997
69.389 -20.399 0.75999999
69.478996 -20.450001 0.77999997
69.469002 -20.5 0.77999997
69.528999 -20.549 0.79000002
69.5 -20.589001 0.77999997
69.528999 -20.639 0.77999997
69.488998 -20.688999 0.75
69.518997 -20.74 0.75999999
69.459 -20.780001 0.73000002
69.418999 -20.83 0.70999998
69.289001 -20.870001 0.67000002
69.119003 -18.290001 0.93000001
69.190002 -18.370001 0.94999999
69.329002 -18.469 0.98000002
69.209 -18.49 0.93000001
69.198997 -18.540001 0.92000002
69.289001 -18.620001 0.94999999
69.338997 -18.688999 0.94999999
69.418999 -18.768999 0.95999998
69.408997 -18.82 0.94999999
69.260002 -18.870001 0.88999999
69.440002 -18.979 0.94999999
69.448997 -19.030001 0.93000001
69.440002 -19.08 0.93000001
69.719002 -19.200001 1
69.598999 -19.219 0.95999998
69.719002 -19.299 1
69.760002 -19.360001 1
69.778999 -19.41 1
68.658997 -19.25 0.63999999
68.619003 -19.299 0.62
68.57 -19.339001 0.60000002
68.369003 -19.360001 0.52999997
68.379997 -19.419001 0.52999997
68.440002 -19.479 0.52999997
68.448997 -19.540001 0.52999997
68.459 -19.599001 0.52999997
68.510002 -19.669001 0.52999997
68.609001 -19.74 0.56
69.209 -19.879 0.75
69.238998 -19.938999 0.75
69.278999 -19.99 0.75
69.308998 -20.049 0.75
69.478996 -20.120001 0.81
69.539001 -20.169001 0.81
69.510002 -20.209 0.79000002
69.549004 -20.268999 0.81
69.549004 -20.309 0.79000002
69.478996 -20.360001 0.75999999
69.558998 -20.41 0.77999997
69.539001 -20.450001 0.77999997
69.598999 -20.509001 0.77999997
69.549004 -20.549 0.75999999
69.619003 -20.599001 0.77999997
69.598999 -20.649 0.75999999
69.649002 -20.688999 0.77999997
69.588997 -20.74 0.75
69.459 -20.790001 0.69999999
69.418999 -20.83 0.68000001
69.32 -20.879 0.63999999
69.119003 -18.209 0.89999998
69.209 -18.299 0.92000002
69.129997 -18.33 0.88999999
68.829002 -18.268999 0.81
68.07 -18.07 0.56999999
68.010002 -18.110001 0.56
68.190002 -18.229 0.58999997
69.379997 -18.679001 0.93000001
69.459 -18.759001 0.94999999
69.399002 -18.790001 0.92000002
68.389 -18.540001 0.62
68.418999 -18.610001 0.62
69.338997 -18.929001 0.88999999
67.969002 -18.599001 0.47999999
69.260002 -19.009001 0.83999997
69.369003 -19.099001 0.87
67.959 -18.790001 0.44999999
69.709 -19.280001 0.94999999
69.768997 -19.349001 0.95999998
69.82 -19.41 0.98000002
69.829002 -19.450001 0.98000002
69.168999 -19.360001 0.75999999
68.609001 -19.290001 0.58999997
68.478996 -19.32 0.54000002
68.289001 -19.339001 0.47999999
68.359001 -19.41 0.5
68.369003 -19.469 0.47999999
68.369003 -19.530001 0.47999999
68.408997 -19.589001 0.47999999
68.459 -19.66 0.5
68.5 -19.719 0.5
69.289001 -19.889 0.73000002
69.308998 -19.938999 0.73000002
69.308998 -19.99 0.73000002
69.579002 -20.08 0.81
69.629997 -20.129 0.81
69.549004 -20.169001 0.77999997
69.588997 -20.219 0.79000002
69.598999 -20.268999 0.77999997
69.639 -20.32 0.79000002
69.609001 -20.360001 0.77999997
69.598999 -20.41 0.75999999
69.598999 -20.459 0.75
69.709 -20.509001 0.79000002
69.690002 -20.559 0.77999997
69.668999 -20.599001 0.75999999
69.698997 -20.649 0.75999999
69.639 -20.700001 0.73000002
69.598999 -20.74 0.73000002
69.528999 -20.790001 0.69999999
69.389 -20.839001 0.63999999
69.299004 -20.889 0.60000002
69.098999 -18.179001 0.87
69.109001 -18.25 0.87
68.948997 -18.25 0.81
68.190002 -18.030001 0.58999997
68.139 -18.08 0.56
68.338997 -18.209 0.62
68.518997 -18.33 0.64999998
69.448997 -18.688999 0.92000002
69.510002 -18.759001 0.93000001
69.418999 -18.790001 0.88999999
68.510002 -18.57 0.62
68.348999 -18.58 0.56
68.348999 -18.639 0.56
69.268997 -18.950001 0.81999999
69.278999 -19.009001 0.81999999
69.209 -19.040001 0.79000002
67.929001 -18.768999 0.40000001
67.978996 -18.849001 0.40000001
69.829002 -19.349001 0.94999999
69.838997 -19.399 0.94999999
69.82 -19.438999 0.94999999
69.838997 -19.49 0.94999999
68.649002 -19.290001 0.56999999
69.940002 -19.610001 0.94999999
68.329002 -19.339001 0.44999999
68.329002 -19.399 0.44999999
68.369003 -19.469 0.44999999
68.418999 -19.540001 0.46000001
68.418999 -19.589001 0.44999999
68.469002 -19.66 0.46000001
69.389 -19.849001 0.75
69.389 -19.899 0.73000002
69.359001 -19.950001 0.70999998
69.338997 -19.99 0.69999999
69.629997 -20.08 0.79000002
69.639 -20.129 0.77999997
69.649002 -20.179001 0.77999997
69.639 -20.219 0.77999997
69.649002 -20.268999 0.77999997
69.778999 -20.33 0.81
69.75 -20.370001 0.79000002
69.698997 -20.419001 0.75999999
69.768997 -20.469 0.77999997
69.738998 -20.509001 0.75999999
69.789001 -20.559 0.77999997
69.75 -20.610001 0.75
69.738998 -20.66 0.75
69.658997 -20.700001 0.70999998
69.579002 -20.75 0.68000001
69.518997 -20.790001 0.64999998
69.359001 -20.839001 0.58999997
69.299004 -20.889 0.56999999
67.629997 -17.479 0.44999999
69.049004 -18.089001 0.83999997
69.129997 -18.179001 0.83999997
69.119003 -18.229 0.83999997
68.079002 -17.919001 0.52999997
68.219002 -18.040001 0.56
68.518997 -18.200001 0.63999999
68.448997 -18.24 0.62
68.369003 -18.268999 0.58999997
69.389 -18.66 0.87
69.488998 -18.74 0.88999999
69.399002 -18.759001 0.87
68.488998 -18.549 0.58999997
68.478996 -18.610001 0.56999999
69.329002 -18.899 0.81
69.308998 -18.950001 0.81
69.278999 -19 0.77999997
69.260002 -19.040001 0.77999997
67.929001 -18.768999 0.37
67.948997 -18.839001 0.37
69.848999 -19.339001 0.93000001
69.869003 -19.389 0.93000001
69.859001 -19.438999 0.92000002
69.859001 -19.49 0.92000002
69.940002 -19.549 0.93000001
69.929001 -19.589001 0.92000002
68.308998 -19.339001 0.41999999
68.238998 -19.389 0.38999999
69.778999 -19.709 0.85000002
69.738998 -19.75 0.83999997
69.869003 -19.82 0.87
69.440002 -19.799 0.73000002
69.448997 -19.849001 0.73000002
69.429001 -19.899 0.70999998
69.389 -19.950001 0.69999999
69.588997 -20.018999 0.75
69.709 -20.08 0.77999997
69.668999 -20.129 0.75999999
69.719002 -20.179001 0.77999997
69.778999 -20.229 0.77999997
69.789001 -20.280001 0.77999997
69.768997 -20.33 0.77999997
69.838997 -20.379 0.77999997
69.778999 -20.419001 0.75999999
69.829002 -20.469 0.77999997
69.789001 -20.518999 0.75
69.848999 -20.57 0.75999999
69.889 -20.620001 0.77999997
69.709 -20.66 0.69999999
69.679001 -20.709 0.68000001
69.629997 -20.75 0.67000002
69.539001 -20.799 0.63999999
69.369003 -20.849001 0.56
69.278999 -20.899 0.52999997
67.738998 -17.450001 0.44999999
67.879997 -17.57 0.47999999
69.088997 -18.089001 0.81
69.079002 -18.139 0.81
69.058998 -18.188999 0.79000002
68.338997 -18 0.56999999
68.579002 -18.139 0.63999999
68.549004 -18.200001 0.62
68.478996 -18.24 0.58999997
68.448997 -18.290001 0.56999999
69.518997 -18.679001 0.87
69.469002 -18.719 0.85000002
69.440002 -18.759001 0.83999997
68.469002 -18.540001 0.54000002
68.418999 -18.58 0.52999997
69.329002 -18.889 0.77999997
69.329002 -18.938999 0.77999997
69.308998 -18.99 0.75999999
69.25 -19.030001 0.75
67.918999 -18.759001 0.34
68.469002 -18.950001 0.5
69.760002 -19.309 0.87
69.838997 -19.370001 0.88999999
69.889 -19.429001 0.88999999
69.940002 -19.49 0.89999998
69.929001 -19.540001 0.88999999
70.079002 -19.610001 0.93000001
69.959 -19.639 0.88999999
69.778999 -19.649 0.83999997
69.639 -19.679001 0.77999997
69.609001 -19.719 0.75999999
69.609001 -19.768999 0.75
69.528999 -19.809 0.73000002
69.539001 -19.860001 0.73000002
69.5 -19.91 0.69999999
69.658997 -19.979 0.75
69.679001 -20.030001 0.75
69.789001 -20.089001 0.77999997
69.838997 -20.139 0.77999997
69.82 -20.188999 0.77999997
69.829002 -20.24 0.77999997
69.859001 -20.290001 0.77999997
69.82 -20.33 0.75
69.918999 -20.379 0.77999997
69.940002 -20.429001 0.77999997
69.940002 -20.479 0.77999997
69.889 -20.518999 0.75
69.82 -20.57 0.73000002
69.799004 -20.620001 0.69999999
69.728996 -20.66 0.67000002
69.658997 -20.709 0.63999999
69.558998 -20.759001 0.60000002
69.510002 -20.809 0.58999997
69.389 -20.860001 0.52999997
69.198997 -20.91 0.46000001
67.848999 -17.41 0.44999999
68.039001 -17.549 0.5
69.07 -18 0.77999997
69.129997 -18.089001 0.79000002
69.119003 -18.139 0.77999997
68.579002 -18.07 0.62
68.679001 -18.169001 0.63999999
68.528999 -18.179001 0.56999999
68.469002 -18.219 0.56
68.478996 -18.290001 0.54000002
69.359001 -18.620001 0.79000002
69.459 -18.700001 0.81999999
69.459 -18.75 0.81
68.429001 -18.518999 0.5
68.528999 -18.610001 0.52999997
69.32 -18.879 0.75
69.32 -18.929001 0.75
69.308998 -18.979 0.73000002
69.25 -19.018999 0.69999999
69.158997 -19.049 0.67000002
68.709 -19.009001 0.52999997
69.690002 -19.280001 0.81
68.918999 -19.16 0.56999999
69.859001 -19.41 0.85000002
69.929001 -19.479 0.87
69.918999 -19.518999 0.87
69.959 -19.58 0.87
69.879997 -19.610001 0.83999997
69.808998 -19.649 0.81
69.679001 -19.679001 0.75999999
69.698997 -19.729 0.75999999
69.658997 -19.768999 0.75
69.609001 -19.82 0.70999998
69.728996 -19.879 0.75
69.778999 -19.938999 0.75999999
69.838997 -20 0.77999997
69.929001 -20.049 0.79000002
69.859001 -20.089001 0.75999999
69.918999 -20.149 0.77999997
69.848999 -20.188999 0.75
69.959 -20.25 0.77999997
69.978996 -20.290001 0.77999997
70.049004 -20.349001 0.79000002
69.959 -20.389 0.75
70.07 -20.438999 0.77999997
69.988998 -20.479 0.75
69.969002 -20.530001 0.75
69.879997 -20.57 0.69999999
69.75 -20.620001 0.64999998
69.690002 -20.669001 0.63999999
69.588997 -20.709 0.58999997
69.549004 -20.759001 0.56999999
69.5 -20.809 0.54000002
69.408997 -20.870001 0.50999999
69.109001 -20.919001 0.40000001
67.889 -17.339001 0.44999999
68.079002 -17.479 0.47999999
68.209 -17.599001 0.50999999
69.079002 -17.99 0.75
69.079002 -18.049 0.75
68.929001 -18.049 0.69999999
68.658997 -18.08 0.60000002
68.728996 -18.169001 0.62
68.619003 -18.188999 0.56999999
68.649002 -18.259001 0.56999999
68.709 -18.339001 0.58999997
69.459 -18.629 0.79000002
69.528999 -18.700001 0.81
69.478996 -18.74 0.77999997
68.289001 -18.469 0.41999999
68.478996 -18.58 0.47999999
69.268997 -18.849001 0.69999999
69.308998 -18.91 0.69999999
69.329002 -18.969 0.69999999
69.278999 -19.009001 0.68000001
69.190002 -19.049 0.63999999
68.969002 -19.049 0.56999999
69.518997 -19.229 0.73000002
68.768997 -19.129 0.5
69.82 -19.389 0.81
69.929001 -19.459 0.83999997
69.918999 -19.509001 0.83999997
69.988998 -19.57 0.83999997
69.988998 -19.620001 0.83999997
69.940002 -19.66 0.81
69.768997 -19.679001 0.75
69.738998 -19.729 0.75
69.728996 -19.780001 0.73000002
69.889 -19.849001 0.77999997
69.859001 -19.889 0.75
69.929001 -19.950001 0.77999997
69.908997 -20 0.75999999
69.969002 -20.049 0.77999997
69.918999 -20.089001 0.75
69.918999 -20.139 0.75
69.988998 -20.200001 0.75999999
70.010002 -20.25 0.75999999
70.018997 -20.290001 0.75
70.07 -20.339001 0.75999999
70.088997 -20.389 0.75999999
70.058998 -20.438999 0.75
70 -20.479 0.73000002
69.908997 -20.530001 0.69999999
69.82 -20.57 0.64999998
69.75 -20.620001 0.62
69.709 -20.669001 0.60000002
69.579002 -20.719 0.56
69.579002 -20.768999 0.54000002
69.488998 -20.82 0.5
69.369003 -20.870001 0.46000001
69.129997 -20.929001 0.37
67.940002 -17.280001 0.43000001
68.168999 -17.438999 0.5
68.289001 -17.549 0.50999999
68.579002 -17.719 0.58999997
69.088997 -17.969 0.73000002
69.079002 -18.030001 0.70999998
68.808998 -17.99 0.63999999
68.738998 -18.030001 0.60000002
68.690002 -18.08 0.56999999
68.709 -18.139 0.56999999
68.639 -18.188999 0.54000002
68.738998 -18.280001 0.56
68.658997 -18.309 0.52999997
68.838997 -18.429001 0.58999997
69.488998 -18.669001 0.75999999
69.469002 -18.719 0.75
68.448997 -18.5 0.44999999
68.348999 -18.540001 0.40000001
68.57 -18.66 0.46000001
69.32 -18.899 0.67000002
69.329002 -18.959 0.67000002
69.308998 -19.009001 0.67000002
69.198997 -19.040001 0.62
69.109001 -19.08 0.58999997
69.478996 -19.209 0.68000001
68.789001 -19.120001 0.47999999
69.848999 -19.389 0.77999997
69.969002 -19.459 0.81999999
69.978996 -19.509001 0.81
70.010002 -19.57 0.81999999
70.039001 -19.620001 0.81999999
70.079002 -19.669001 0.81999999
70.098999 -19.719 0.81999999
69.789001 -19.729 0.73000002
69.940002 -19.799 0.75999999
69.969002 -19.849001 0.75999999
69.940002 -19.899 0.75
70.07 -19.959 0.77999997
70.039001 -20 0.77999997
70.079002 -20.059 0.77999997
70.07 -20.099001 0.75999999
70.098999 -20.149 0.77999997
70.079002 -20.200001 0.75
70.109001 -20.25 0.75999999
70.198997 -20.299 0.77999997
70.179001 -20.349001 0.77999997
70.07 -20.389 0.73000002
70.07 -20.438999 0.73000002
70.010002 -20.479 0.69999999
69.879997 -20.530001 0.63999999
69.829002 -20.58 0.62
69.75 -20.620001 0.58999997
69.728996 -20.669001 0.56999999
69.609001 -20.719 0.52999997
69.579002 -20.768999 0.50999999
69.469002 -20.83 0.47999999
69.329002 -20.879 0.41999999
69.228996 -20.938999 0.37
68.018997 -17.229 0.43000001
68.168999 -17.360001 0.46000001
68.369003 -17.509001 0.50999999
68.539001 -17.629 0.56
68.988998 -17.870001 0.67000002
69.088997 -17.959 0.69999999
69.028999 -18 0.67000002
68.929001 -18.030001 0.63999999
68.808998 -18.049 0.58999997
68.75 -18.089001 0.56
68.728996 -18.139 0.54000002
68.658997 -18.179001 0.50999999
68.760002 -18.280001 0.54000002
68.918999 -18.389 0.58999997
69.399002 -18.58 0.70999998
69.5 -18.669001 0.73000002
69.469002 -18.709 0.73000002
69.399002 -18.75 0.69999999
68.158997 -18.49 0.31
68.010002 -18.509001 0.25
69.278999 -18.889 0.63999999
69.289001 -18.950001 0.63999999
69.299004 -19 0.62
69.219002 -19.040001 0.58999997
69.149002 -19.08 0.56
69.119003 -19.129 0.54000002
68.789001 -19.120001 0.43000001
69.760002 -19.370001 0.73000002
69.978996 -19.459 0.77999997
69.969002 -19.509001 0.77999997
70.028999 -19.559 0.79000002
70.039001 -19.620001 0.77999997
70.028999 -19.66 0.77999997
70.098999 -19.719 0.79000002
69.918999 -19.75 0.73000002
70.028999 -19.809 0.75
70.028999 -19.860001 0.75
70.039001 -19.91 0.75
70.058998 -19.959 0.75
70.039001 -20 0.73000002
70.198997 -20.07 0.77999997
70.119003 -20.110001 0.75
70.209 -20.16 0.77999997
70.149002 -20.209 0.75
70.198997 -20.259001 0.75
70.190002 -20.299 0.75
70.139 -20.349001 0.73000002
70.088997 -20.389 0.69999999
70.058998 -20.438999 0.68000001
69.988998 -20.49 0.64999998
69.889 -20.540001 0.62
69.82 -20.58 0.58999997
69.75 -20.629 0.56
69.719002 -20.679001 0.52999997
69.588997 -20.729 0.5
69.579002 -20.790001 0.47999999
69.418999 -20.839001 0.41999999
69.329002 -20.899 0.38999999
69.278999 -20.950001 0.34999999
68.079002 -17.179001 0.41999999
68.260002 -17.32 0.46000001
68.429001 -17.450001 0.5
68.619003 -17.589001 0.56
68.639 -17.66 0.54000002
69.088997 -17.889 0.67000002
69.088997 -17.950001 0.67000002
69.010002 -17.979 0.63999999
68.918999 -18.018999 0.58999997
68.859001 -18.049 0.56999999
68.838997 -18.110001 0.56
68.760002 -18.149 0.52999997
68.698997 -18.188999 0.5
68.719002 -18.259001 0.5
69.359001 -18.559 0.67000002
69.5 -18.66 0.69999999
69.518997 -18.719 0.69999999
69.329002 -18.719 0.63999999
67.859001 -18.41 0.2
69.418999 -18.860001 0.64999998
69.32 -18.889 0.62
69.338997 -18.950001 0.62
69.308998 -19 0.58999997
69.228996 -19.040001 0.56
69.079002 -19.059 0.5
68.929001 -19.089001 0.44999999
68.948997 -19.149 0.44999999
69.988998 -19.450001 0.75999999
70 -19.5 0.75
70 -19.549 0.75
70.018997 -19.610001 0.75
70.109001 -19.669001 0.77999997
70.088997 -19.719 0.75999999
70.139 -19.768999 0.75999999
70.109001 -19.82 0.75
70.049004 -19.860001 0.73000002
70.129997 -19.919001 0.75
70.168999 -19.969 0.75
70.209 -20.018999 0.75
70.278999 -20.08 0.77999997
70.268997 -20.120001 0.75999999
70.25 -20.169001 0.75
70.238998 -20.209 0.75
70.268997 -20.259001 0.75
70.25 -20.309 0.73000002
70.219002 -20.360001 0.70999998
70.109001 -20.399 0.67000002
70.109001 -20.450001 0.67000002
69.948997 -20.49 0.60000002
69.889 -20.540001 0.58999997
69.82 -20.589001 0.56
69.760002 -20.639 0.52999997
69.728996 -20.688999 0.5
69.619003 -20.75 0.46000001
69.539001 -20.799 0.43000001
69.399002 -20.860001 0.37
69.359001 -20.91 0.34999999
68.079002 -17.089001 0.40000001
68.329002 -17.259001 0.46000001
68.440002 -17.370001 0.47999999
68.518997 -17.469 0.5
68.709 -17.610001 0.54000002
68.918999 -17.75 0.58999997
69.119003 -17.879 0.63999999
69.079002 -17.929001 0.62
68.969002 -17.950001 0.58999997
68.879997 -17.99 0.56
68.940002 -18.07 0.56
68.918999 -18.120001 0.54000002
68.778999 -18.139 0.5
68.859001 -18.229 0.50999999
68.679001 -18.24 0.44999999
69.408997 -18.559 0.64999998
69.510002 -18.649 0.67000002
69.5 -18.700001 0.67000002
69.389 -18.729 0.62
69.57 -18.83 0.67000002
69.429001 -18.849001 0.62
69.429001 -18.91 0.62
69.359001 -18.950001 0.58999997
69.299004 -18.99 0.56
69.198997 -19.030001 0.52999997
68.969002 -19.040001 0.44999999
68.848999 -19.07 0.38999999
68.959 -19.149 0.41999999
69.829002 -19.370001 0.68000001
69.948997 -19.438999 0.70999998
70.039001 -19.5 0.75
70.049004 -19.559 0.73000002
70.088997 -19.610001 0.73000002
70.088997 -19.66 0.73000002
70.109001 -19.709 0.73000002
70.109001 -19.759001 0.73000002
70.109001 -19.809 0.73000002
70.158997 -19.870001 0.73000002
70.179001 -19.919001 0.73000002
70.25 -19.969 0.75
70.228996 -20.018999 0.73000002
70.299004 -20.08 0.75
70.299004 -20.120001 0.75
70.289001 -20.169001 0.73000002
70.268997 -20.219 0.73000002
70.289001 -20.259001 0.73000002
70.219002 -20.309 0.69999999
70.209 -20.360001 0.68000001
70.179001 -20.399 0.67000002
70.079002 -20.450001 0.62
69.948997 -20.5 0.56999999
69.899002 -20.549 0.56
69.838997 -20.599001 0.52999997
69.75 -20.649 0.5
69.679001 -20.700001 0.44999999
69.609001 -20.759001 0.43000001
69.488998 -20.809 0.38999999
69.459 -20.870001 0.37
69.448997 -20.919001 0.34999999
68.109001 -17.030001 0.38999999
68.359001 -17.200001 0.44999999
68.478996 -17.309 0.47999999
68.539001 -17.41 0.47999999
68.690002 -17.530001 0.50999999
68.75 -17.620001 0.52999997
69.07 -17.790001 0.60000002
69.209 -17.899 0.63999999
69.07 -17.919001 0.58999997
69.018997 -17.959 0.56
68.929001 -18 0.52999997
69.010002 -18.08 0.54000002
68.869003 -18.099001 0.5
68.859001 -18.16 0.47999999
68.778999 -18.200001 0.44999999
68.719002 -18.25 0.43000001
68.899002 -18.360001 0.47999999
69.338997 -18.540001 0.58999997
69.488998 -18.639 0.63999999
69.518997 -18.700001 0.63999999
69.408997 -18.729 0.58999997
69.429001 -18.790001 0.58999997
69.440002 -18.849001 0.58999997
69.389 -18.889 0.56
69.369003 -18.950001 0.56
69.278999 -18.979 0.50999999
69.168999 -19.018999 0.47999999
68.838997 -19.009001 0.37
68.799004 -19.07 0.34999999
69.098999 -19.179001 0.43000001
69.899002 -19.370001 0.67000002
69.988998 -19.438999 0.69999999
70.088997 -19.509001 0.73000002
70.039001 -19.549 0.69999999
70.028999 -19.599001 0.68000001
70.119003 -19.66 0.70999998
70.129997 -19.709 0.69999999
70.119003 -19.759001 0.69999999
70.198997 -19.82 0.70999998
70.219002 -19.870001 0.70999998
70.238998 -19.919001 0.70999998
70.209 -19.969 0.69999999
70.278999 -20.030001 0.70999998
70.278999 -20.08 0.70999998
70.348999 -20.129 0.73000002
70.338997 -20.179001 0.70999998
70.348999 -20.219 0.70999998
70.278999 -20.268999 0.68000001
70.329002 -20.32 0.69999999
70.168999 -20.360001 0.63999999
70.179001 -20.41 0.63999999
70.049004 -20.459 0.58999997
69.948997 -20.509001 0.54000002
69.889 -20.559 0.50999999
69.848999 -20.610001 0.5
69.728996 -20.66 0.44999999
69.679001 -20.719 0.41999999
69.57 -20.768999 0.38999999
69.539001 -20.83 0.37
69.5 -20.879 0.34
68.209 -16.99 0.38999999
68.389 -17.129 0.41999999
68.518997 -17.25 0.44999999
68.668999 -17.379 0.47999999
68.690002 -17.450001 0.47999999
68.808998 -17.559 0.50999999
68.908997 -17.66 0.52999997
69.028999 -17.768999 0.56
69.260002 -17.91 0.62
69.129997 -17.929001 0.56999999
69.119003 -17.99 0.56
69.158997 -18.059 0.56
69.139 -18.120001 0.56
69.260002 -18.219 0.58999997
69.329002 -18.290001 0.58999997
69.369003 -18.370001 0.58999997
69.459 -18.450001 0.62
69.440002 -18.5 0.60000002
69.518997 -18.58 0.62
69.588997 -18.66 0.63999999
69.549004 -18.700001 0.62
69.549004 -18.759001 0.60000002
69.539001 -18.809 0.58999997
69.5 -18.860001 0.56999999
69.619003 -18.938999 0.60000002
69.668999 -19.009001 0.62
69.658997 -19.059 0.60000002
69.789001 -19.139 0.63999999
69.838997 -19.200001 0.63999999
69.929001 -19.268999 0.67000002
69.929001 -19.33 0.64999998
70 -19.389 0.67000002
70.028999 -19.450001 0.67000002
70.058998 -19.5 0.68000001
70.088997 -19.559 0.68000001
70.088997 -19.610001 0.67000002
70.119003 -19.66 0.67000002
70.129997 -19.709 0.67000002
70.168999 -19.768999 0.68000001
70.190002 -19.82 0.68000001
70.228996 -19.870001 0.68000001
70.198997 -19.919001 0.67000002
70.289001 -19.979 0.69999999
70.32 -20.030001 0.69999999
70.299004 -20.08 0.68000001
70.359001 -20.129 0.69999999
70.359001 -20.179001 0.69999999
70.359001 -20.229 0.68000001
70.299004 -20.268999 0.67000002
70.228996 -20.32 0.62
70.179001 -20.370001 0.60000002
70.168999 -20.419001 0.58999997
70.018997 -20.469 0.52999997
69.959 -20.518999 0.50999999
69.899002 -20.57 0.47999999
69.799004 -20.620001 0.44999999
69.719002 -20.679001 0.41999999
69.639 -20.729 0.38999999
69.609001 -20.790001 0.37
69.588997 -20.839001 0.34
69.539001 -20.899 0.31999999
68.338997 -17.030001 0.38999999
68.598999 -17.200001 0.44999999
68.698997 -17.309 0.47999999
68.808998 -17.419001 0.5
68.889 -17.509001 0.50999999
68.940002 -17.589001 0.50999999
68.940002 -17.66 0.5
69.018997 -17.75 0.52999997
69.158997 -17.860001 0.56
69.158997 -17.919001 0.54000002
69.190002 -18 0.54000002
69.198997 -18.059 0.54000002
69.260002 -18.139 0.56
69.338997 -18.229 0.56
69.348999 -18.290001 0.56
69.379997 -18.360001 0.56
69.469002 -18.438999 0.58999997
69.469002 -18.5 0.56999999
69.539001 -18.58 0.58999997
69.549004 -18.629 0.58999997
69.658997 -18.719 0.62
69.668999 -18.780001 0.60000002
69.719002 -18.839001 0.62
69.690002 -18.889 0.58999997
69.778999 -18.969 0.62
69.82 -19.030001 0.62
69.82 -19.08 0.62
69.889 -19.149 0.63999999
69.869003 -19.200001 0.62
69.940002 -19.268999 0.63999999
69.959 -19.32 0.63999999
70.028999 -19.389 0.63999999
70.049004 -19.438999 0.63999999
70.088997 -19.5 0.64999998
70.07 -19.549 0.63999999
70.109001 -19.599001 0.63999999
70.139 -19.66 0.64999998
70.190002 -19.719 0.67000002
70.209 -19.768999 0.67000002
70.219002 -19.82 0.64999998
70.260002 -19.870001 0.67000002
70.25 -19.919001 0.64999998
70.278999 -19.979 0.64999998
70.329002 -20.030001 0.67000002
70.32 -20.08 0.64999998
70.369003 -20.129 0.67000002
70.429001 -20.179001 0.68000001
70.289001 -20.219 0.62
70.260002 -20.268999 0.62
70.25 -20.32 0.60000002
70.179001 -20.370001 0.56999999
70.179001 -20.419001 0.56
70.028999 -20.469 0.50999999
69.940002 -20.518999 0.47999999
69.879997 -20.58 0.44999999
69.848999 -20.629 0.41999999
69.728996 -20.679001 0.38999999
69.679001 -20.74 0.34999999
69.658997 -20.790001 0.34
69.588997 -20.849001 0.31
69.518997 -20.91 0.28
68.418999 -16.979 0.38999999
68.558998 -17.099001 0.41999999
68.709 -17.229 0.44999999
68.82 -17.339001 0.47999999
68.899002 -17.438999 0.47999999
68.889 -17.5 0.47999999
68.948997 -17.589001 0.47999999
69.049004 -17.688999 0.5
69.058998 -17.75 0.5
69.119003 -17.839001 0.5
69.179001 -17.919001 0.50999999
69.179001 -17.979 0.50999999
69.25 -18.07 0.52999997
69.25 -18.129 0.50999999
69.348999 -18.219 0.52999997
69.369003 -18.280001 0.52999997
69.459 -18.370001 0.56
69.5 -18.438999 0.56
69.528999 -18.5 0.56
69.57 -18.57 0.56
69.57 -18.629 0.56
69.649002 -18.700001 0.56999999
69.668999 -18.768999 0.56999999
69.760002 -18.839001 0.58999997
69.698997 -18.889 0.56
69.778999 -18.959 0.58999997
69.808998 -19.018999 0.58999997
69.829002 -19.08 0.58999997
69.869003 -19.139 0.58999997
69.940002 -19.209 0.60000002
69.959 -19.259001 0.60000002
69.988998 -19.32 0.62
70.028999 -19.379 0.62
70.049004 -19.438999 0.62
70.109001 -19.5 0.62
70.129997 -19.549 0.62
70.158997 -19.610001 0.63999999
70.228996 -19.669001 0.63999999
70.179001 -19.709 0.62
70.219002 -19.768999 0.63999999
70.228996 -19.82 0.62
70.299004 -19.879 0.63999999
70.299004 -19.929001 0.63999999
70.329002 -19.979 0.63999999
70.359001 -20.030001 0.63999999
70.369003 -20.08 0.63999999
70.379997 -20.129 0.63999999
70.389 -20.179001 0.63999999
70.289001 -20.229 0.58999997
70.32 -20.280001 0.58999997
70.238998 -20.33 0.56
70.190002 -20.379 0.54000002
70.149002 -20.429001 0.52999997
70.028999 -20.479 0.47999999
70.010002 -20.530001 0.46000001
69.918999 -20.58 0.41999999
69.829002 -20.639 0.38999999
69.75 -20.688999 0.34999999
69.760002 -20.75 0.34999999
69.709 -20.809 0.31999999
69.629997 -20.860001 0.28999999
69.448997 -20.929001 0.23
68.32 -16.860001 0.31999999
68.528999 -17.009001 0.37
68.649002 -17.129 0.40000001
68.75 -17.24 0.41999999
68.768997 -17.32 0.41999999
68.869003 -17.419001 0.44999999
68.908997 -17.5 0.44999999
68.978996 -17.589001 0.44999999
69.010002 -17.669001 0.44999999
69.088997 -17.759001 0.47999999
69.119003 -17.83 0.47999999
69.158997 -17.91 0.47999999
69.260002 -18 0.5
69.289001 -18.07 0.5
69.348999 -18.149 0.50999999
69.369003 -18.219 0.5
69.399002 -18.290001 0.50999999
69.440002 -18.360001 0.50999999
69.488998 -18.429001 0.52999997
69.57 -18.509001 0.52999997
69.539001 -18.559 0.52999997
69.609001 -18.629 0.52999997
69.639 -18.700001 0.52999997
69.690002 -18.768999 0.54000002
69.679001 -18.82 0.52999997
69.799004 -18.899 0.56
69.789001 -18.959 0.56
69.829002 -19.018999 0.56
69.879997 -19.089001 0.56999999
69.918999 -19.149 0.56999999
69.948997 -19.209 0.56999999
69.959 -19.259001 0.56999999
70.028999 -19.33 0.58999997
70.039001 -19.379 0.58999997
70.079002 -19.438999 0.58999997
70.129997 -19.5 0.58999997
70.129997 -19.549 0.58999997
70.119003 -19.599001 0.58999997
70.228996 -19.669001 0.62
70.219002 -19.719 0.60000002
70.238998 -19.768999 0.60000002
70.278999 -19.83 0.60000002
70.308998 -19.879 0.62
70.32 -19.929001 0.62
70.348999 -19.979 0.62
70.379997 -20.040001 0.62
70.399002 -20.089001 0.62
70.399002 -20.139 0.62
70.359001 -20.188999 0.58999997
70.32 -20.24 0.56999999
70.369003 -20.290001 0.58999997
70.278999 -20.339001 0.54000002
70.209 -20.389 0.50999999
70.129997 -20.438999 0.47999999
70.028999 -20.49 0.44999999
69.988998 -20.540001 0.41999999
69.879997 -20.599001 0.37
69.869003 -20.649 0.37
69.829002 -20.709 0.34999999
69.768997 -20.759001 0.31999999
69.679001 -20.82 0.28
69.57 -20.889 0.23
68.408997 -16.879 0.31
68.649002 -17.049 0.37
68.668999 -17.129 0.37
68.738998 -17.219 0.38999999
68.879997 -17.349001 0.41999999
68.869003 -17.41 0.40000001
68.918999 -17.5 0.41999999
68.978996 -17.58 0.41999999
69.039001 -17.66 0.41999999
69.119003 -17.759001 0.44999999
69.109001 -17.82 0.43000001
69.168999 -17.899 0.44999999
69.278999 -18 0.46000001
69.348999 -18.08 0.47999999
69.299004 -18.129 0.46000001
69.379997 -18.209 0.47999999
69.429001 -18.290001 0.47999999
69.469002 -18.360001 0.47999999
69.469002 -18.419001 0.47999999
69.558998 -18.5 0.5
69.579002 -18.559 0.5
69.649002 -18.639 0.50999999
69.679001 -18.700001 0.50999999
69.728996 -18.768999 0.52999997
69.738998 -18.83 0.52999997
69.778999 -18.889 0.52999997
69.768997 -18.950001 0.50999999
69.859001 -19.018999 0.52999997
69.908997 -19.089001 0.54000002
69.879997 -19.139 0.52999997
69.940002 -19.200001 0.54000002
69.978996 -19.259001 0.54000002
70.028999 -19.32 0.56
70.039001 -19.379 0.56
70.088997 -19.438999 0.56
70.109001 -19.5 0.56
70.119003 -19.549 0.56
70.158997 -19.610001 0.56
70.228996 -19.669001 0.56999999
70.198997 -19.719 0.56
70.260002 -19.768999 0.56999999
70.260002 -19.83 0.56
70.260002 -19.879 0.56
70.348999 -19.938999 0.58999997
70.348999 -19.99 0.58999997
70.338997 -20.040001 0.56999999
70.389 -20.089001 0.56999999
70.399002 -20.139 0.56999999
70.359001 -20.188999 0.56
70.308998 -20.24 0.52999997
70.289001 -20.290001 0.52999997
70.228996 -20.339001 0.5
70.179001 -20.389 0.47999999
70.139 -20.450001 0.44999999
70.039001 -20.5 0.41999999
69.969002 -20.549 0.38999999
69.889 -20.610001 0.34
69.899002 -20.66 0.34
69.859001 -20.719 0.31999999
69.768997 -20.780001 0.28
69.649002 -20.839001 0.23
69.448997 -20.91 0.16
68.429001 -16.899 0.28
68.619003 -17.040001 0.31999999
68.698997 -17.139 0.34
68.778999 -17.24 0.34999999
68.789001 -17.309 0.34999999
68.929001 -17.429001 0.38999999
68.969002 -17.509001 0.38999999
68.988998 -17.58 0.38999999
69.039001 -17.669001 0.38999999
69.129997 -17.759001 0.41999999
69.119003 -17.82 0.38999999
69.198997 -17.91 0.41999999
69.25 -17.99 0.41999999
69.278999 -18.059 0.41999999
69.338997 -18.139 0.43000001
69.408997 -18.219 0.44999999
69.418999 -18.290001 0.44999999
69.488998 -18.360001 0.44999999
69.478996 -18.419001 0.44999999
69.539001 -18.5 0.44999999
69.588997 -18.57 0.46000001
69.598999 -18.629 0.46000001
69.639 -18.700001 0.46000001
69.698997 -18.768999 0.47999999
69.778999 -18.839001 0.5
69.760002 -18.889 0.47999999
69.869003 -18.969 0.5
69.859001 -19.030001 0.5
69.908997 -19.089001 0.5
69.959 -19.149 0.50999999
69.978996 -19.209 0.50999999
69.978996 -19.268999 0.5
70.010002 -19.33 0.50999999
70.079002 -19.389 0.52999997
70.07 -19.438999 0.50999999
70.119003 -19.5 0.52999997
70.158997 -19.559 0.52999997
70.139 -19.620001 0.52999997
70.25 -19.679001 0.56
70.25 -19.729 0.54000002
