ply
format ascii 1.0
comment PCL generated
element vertex 1497
property float x
property float y
property float z
element camera 0
property float view_px
property float view_py
property float view_pz
property float x_axisx
property float x_axisy
property float x_axisz
property float y_axisx
property float y_axisy
property float y_axisz
property float z_axisx
property float z_axisy
property float z_axisz
property float focal
property float scalex
property float scaley
property float centerx
property float centery
property int viewportx
property int viewporty
property float k1
property float k2
end_header
-763.56543 -112.80936 1825.6361
-762.68713 -112.80056 1825.5414
-761.56445 -112.75555 1824.8611
-760.71539 -112.75101 1824.8354
-759.62012 -112.70993 1824.2185
-758.8299 -112.71408 1824.3335
-757.82678 -112.68658 1823.9363
-756.97858 -112.68207 1823.9114
-756.13971 -112.67895 1823.9088
-755.26141 -112.66994 1823.811
-754.52045 -112.68141 1824.0448
-753.70215 -112.68136 1824.092
-752.96033 -112.69274 1824.3245
-752.13379 -112.69147 1824.3521
-751.44647 -112.71107 1824.7175
-750.65234 -112.71468 1824.8242
-750.0343 -112.74477 1825.3595
-749.25452 -112.75057 1825.5018
-748.65973 -112.78427 1826.0957
-747.86322 -112.78763 1826.1984
-747.29822 -112.82593 1826.8669
-746.67163 -112.85501 1827.3864
-745.89722 -112.86179 1827.5446
-745.35223 -112.90335 1828.266
-744.78485 -112.9416 1828.9338
-744.21967 -112.98027 1829.6086
-743.54034 -113.00167 1830.0039
-743.05402 -113.05249 1830.8755
-742.60046 -113.1084 1831.8297
-741.99756 -113.14167 1832.4174
-765.34998 -112.01017 1825.8981
-764.23517 -111.96683 1825.2394
-763.30969 -111.95115 1825.0316
-762.23639 -111.91374 1824.4697
-761.32904 -111.90064 1824.3041
-760.38818 -111.88259 1824.0576
-759.37225 -111.85345 1823.6304
-758.5094 -111.8468 1823.5701
-757.68488 -111.84581 1823.6018
-756.71692 -111.82362 1823.288
-755.90741 -111.82481 1823.3555
-755.0672 -111.82147 1823.3491
-754.25153 -111.82175 1823.4019
-753.4859 -111.82948 1823.5758
-752.74835 -111.84138 1823.8182
-751.95801 -111.84545 1823.9327
-751.12317 -111.84292 1823.9397
-750.48962 -111.87038 1824.4358
-749.69 -111.87313 1824.5288
-749.02155 -111.89548 1824.9415
-748.27783 -111.90661 1825.1715
-747.65045 -111.9352 1825.6862
-746.9978 -111.96005 1826.1399
-746.38855 -111.99147 1826.7008
-745.73389 -112.01614 1827.1517
-745.05225 -112.03681 1827.5375
-744.50696 -112.07806 1828.2588
-743.94641 -112.11709 1828.9441
-743.32343 -112.1468 1829.4773
-742.87659 -112.20317 1830.4457
-742.39117 -112.25383 1831.3208
-741.71436 -112.27563 1831.7253
-741.0351 -112.29712 1832.1246
-766.01978 -111.16766 1825.5017
-765.02692 -111.14239 1825.1344
-763.95258 -111.10518 1824.5713
-762.94373 -111.07745 1824.1637
-761.99731 -111.05875 1823.9045
-760.9339 -111.02293 1823.3643
-760.01703 -111.00846 1823.1744
-759.11896 -110.99669 1823.0291
-758.23718 -110.9873 1822.9227
-757.33978 -110.97557 1822.7782
-756.49005 -110.97083 1822.7484
-755.66437 -110.96961 1822.7764
-754.86719 -110.97257 1822.8732
-753.99792 -110.96494 1822.7959
-753.26709 -110.97768 1823.0533
-752.4541 -110.97834 1823.1123
-751.72394 -110.99123 1823.3723
-750.93738 -110.99581 1823.4957
-750.22528 -111.01141 1823.8004
-749.43365 -111.01528 1823.9122
-748.78412 -111.04022 1824.3702
-748.0495 -111.05259 1824.6218
-747.43665 -111.08308 1825.1711
-746.81061 -111.11167 1825.6895
-746.12415 -111.13133 1826.061
-745.5307 -111.16492 1826.6613
-744.80463 -111.17876 1826.9374
-744.30707 -111.22679 1827.7753
-743.67828 -111.25529 1828.2922
-743.07184 -111.28721 1828.8654
-742.54706 -111.33145 1829.641
-741.97449 -111.36861 1830.3004
-741.36871 -111.40085 1830.8792
-740.8866 -111.45177 1831.7649
-766.92743 -110.35977 1825.6725
-765.8728 -110.32581 1825.1584
-764.70117 -110.27489 1824.364
-763.66028 -110.24275 1823.8802
-762.62866 -110.21188 1823.4172
-761.6687 -110.19131 1823.1249
-760.73834 -110.17498 1822.9026
-759.75885 -110.15149 1822.562
-758.9447 -110.15195 1822.6177
-758.00073 -110.13356 1822.3612
-757.11945 -110.12424 1822.255
-756.29327 -110.12292 1822.2814
-755.45526 -110.11987 1822.2789
-754.6322 -110.11901 1822.3127
-753.81873 -110.11954 1822.3696
-753.04175 -110.12541 1822.515
-752.26678 -110.1316 1822.6656
-751.53308 -110.14384 1822.9164
-750.75494 -110.14959 1823.0598
-750.01917 -110.16157 1823.3064
-749.27521 -110.17238 1823.5337
-748.55341 -110.18648 1823.8153
-747.87579 -110.20711 1824.2052
-747.25696 -110.23647 1824.7395
-746.55695 -110.25389 1825.0765
-745.92957 -110.2821 1825.592
-745.31897 -110.31286 1826.1497
-744.65363 -110.33556 1826.5741
-744.01093 -110.36169 1827.0552
-743.42981 -110.39701 1827.6886
-742.88611 -110.43798 1828.4155
-742.37292 -110.48357 1829.2191
-741.67395 -110.5016 1829.5663
-741.2204 -110.55626 1830.5201
-740.81592 -110.61839 1831.5975
-740.0816 -110.63132 1831.8607
-767.70142 -109.53259 1825.5249
-766.62158 -109.4953 1824.9513
-765.45441 -109.44545 1824.1683
-764.44202 -109.41765 1823.7527
-763.45398 -109.39327 1823.3944
-762.37933 -109.35641 1822.828
-761.40247 -109.33353 1822.4945
-760.50842 -109.32251 1822.3586
-759.56067 -109.30372 1822.0934
-758.68481 -109.29527 1822.0005
-757.80249 -109.28585 1821.8916
-756.88965 -109.27201 1821.7089
-756.08997 -109.27449 1821.7983
-755.21771 -109.26649 1821.7131
-754.43921 -109.27203 1821.8536
-753.6286 -109.27295 1821.9171
-752.81635 -109.27364 1821.9767
-752.0744 -109.28452 1822.2064
-751.2915 -109.28949 1822.3375
-750.54517 -109.29979 1822.5575
-749.8299 -109.31464 1822.8534
-749.10028 -109.32742 1823.115
-748.38196 -109.3419 1823.4047
-747.6947 -109.36094 1823.7706
-747.02338 -109.38235 1824.1763
-746.36224 -109.40531 1824.6077
-745.69507 -109.42744 1825.0251
-745.07117 -109.45596 1825.5496
-744.46179 -109.48671 1826.1108
-743.83362 -109.51474 1826.627
-743.15271 -109.53506 1827.0146
-742.67365 -109.58521 1827.8998
-742.0578 -109.61527 1828.45
-741.48895 -109.65235 1829.1172
-741.06262 -109.71061 1830.1378
-740.32288 -109.72254 1830.3857
-739.94324 -109.78793 1831.5256
-739.39966 -109.82912 1832.2616
-768.61816 -108.72572 1825.7167
-767.52136 -108.68636 1825.1035
-766.34204 -108.63522 1824.2927
-765.24231 -108.59526 1823.6696
-764.22626 -108.56711 1823.2448
-763.20526 -108.5382 1822.8073
-762.16266 -108.50614 1822.3168
-761.19702 -108.485 1822.0096
-760.289 -108.47202 1821.8396
-759.39514 -108.46104 1821.7032
-758.45355 -108.44322 1821.4519
-757.62506 -108.44155 1821.4719
-756.75031 -108.43324 1821.3804
-755.88397 -108.42612 1821.309
-755.06635 -108.42599 1821.3549
-754.26312 -108.42792 1821.4354
-753.4621 -108.43018 1821.5216
-752.64984 -108.43082 1821.5807
-751.90308 -108.44091 1821.7983
-751.11902 -108.44564 1821.9261
-750.38672 -108.45786 1822.1797
-749.6405 -108.46809 1822.4
-748.94092 -108.4851 1822.7341
-748.21539 -108.49839 1823.0059
-747.53485 -108.51824 1823.3877
-746.87469 -108.5411 1823.8203
-746.19568 -108.56126 1824.2076
-745.55334 -108.58681 1824.6855
-744.88055 -108.60798 1825.0897
-744.33307 -108.64748 1825.8021
-743.60541 -108.66074 1826.0737
-743.05682 -108.70023 1826.786
-742.39166 -108.72273 1827.2129
-741.87805 -108.76751 1828.0143
-741.30414 -108.80353 1828.6683
-740.75153 -108.84277 1829.3767
-740.20953 -108.88364 1830.1127
-739.72546 -108.93315 1830.9937
-739.24976 -108.98401 1831.8975
-738.71149 -109.02573 1832.6477
-738.0965 -109.05622 1833.2094
-552.54468 -112.45175 1902.72
-551.72266 -112.45709 1902.8584
-550.88843 -112.45996 1902.955
-550.13068 -112.47847 1903.316
-549.30286 -112.48268 1903.4354
-548.49188 -112.49038 1903.6135
-547.64838 -112.4914 1903.6787
-546.88367 -112.50864 1904.0183
-768.51672 -107.89063 1825.4824
-767.28955 -107.83323 1824.5591
-766.15363 -107.78855 1823.851
-764.98547 -107.73923 1823.0643
-763.92371 -107.7048 1822.5298
-762.97815 -107.68671 1822.2715
-762.02313 -107.66724 1821.99
-761.02765 -107.64201 1821.611
-760.13818 -107.63173 1821.4851
-759.22168 -107.61761 1821.2941
-758.31793 -107.60525 1821.1331
-757.44128 -107.59673 1821.0369
-756.59796 -107.59292 1821.0206
-755.73309 -107.58604 1820.9524
-754.93958 -107.58932 1821.0559
-754.09607 -107.58547 1821.0389
-753.33282 -107.59308 1821.2159
-752.49774 -107.59043 1821.2194
-751.76483 -107.6024 1821.4703
-750.96375 -107.60464 1821.5564
-750.24585 -107.6188 1821.8446
-749.50073 -107.62909 1822.0671
-748.80743 -107.64685 1822.4163
-748.07172 -107.65856 1822.6628
-747.40955 -107.68087 1823.0891
-746.66998 -107.69209 1823.3275
-746.06543 -107.72281 1823.8962
-745.36914 -107.74035 1824.2417
-744.76044 -107.7706 1824.8025
-744.1286 -107.79756 1825.3077
-743.43616 -107.8158 1825.6652
-742.93347 -107.86163 1826.49
-742.22272 -107.87732 1826.8043
-741.74744 -107.9273 1827.6996
-741.22424 -107.97041 1828.4785
-740.60901 -108.0002 1829.0319
-740.03284 -108.03576 1829.683
-739.67773 -108.10371 1830.8827
-739.12408 -108.14276 1831.5931
-738.56982 -108.18181 1832.3036
-737.98462 -108.21641 1832.9386
-555.83685 -111.58219 1902.1929
-555.07117 -111.59875 1902.5234
-554.19946 -111.59401 1902.4908
-553.3894 -111.60168 1902.6698
-552.57373 -111.60825 1902.8298
-551.72522 -111.60819 1902.8771
-550.86945 -111.60667 1902.8992
-550.06287 -111.61512 1903.0912
-549.26166 -111.62469 1903.3025
-548.46704 -111.63563 1903.5369
-547.64948 -111.64194 1903.6924
-546.82404 -111.64664 1903.8206
-546.10254 -111.67262 1904.3114
-545.41962 -111.70659 1904.9385
-544.86432 -111.76685 1906.0139
-544.11499 -111.78742 1906.4125
-543.27734 -111.78989 1906.5023
-542.39832 -111.78383 1906.4468
-768.22968 -107.02991 1824.8073
-766.9715 -106.96857 1823.8093
-765.9599 -106.94154 1823.3965
-764.87463 -106.90416 1822.807
-763.78296 -106.86578 1822.2007
-762.77942 -106.83968 1821.8036
-761.87262 -106.8271 1821.637
-760.88336 -106.8029 1821.2725
-759.93304 -106.78413 1821.0004
-759.08234 -106.77933 1820.9666
-758.15234 -106.76336 1820.7422
-757.2713 -106.75425 1820.635
-756.43445 -106.75137 1820.6339
-755.5694 -106.74448 1820.5647
-754.76935 -106.74678 1820.6521
-753.95404 -106.74693 1820.7028
-753.16162 -106.75032 1820.809
-752.38599 -106.7561 1820.9558
-751.62866 -106.76449 1821.1472
-750.8587 -106.7711 1821.3085
-750.0813 -106.77668 1821.452
-749.36932 -106.79159 1821.7546
-748.65356 -106.80599 1822.0488
-747.94922 -106.82205 1822.3713
-747.24182 -106.83772 1822.687
-746.58258 -106.86031 1823.121
-745.91241 -106.88139 1823.5292
-745.17804 -106.8933 1823.7809
-744.599 -106.92755 1824.4139
-743.92352 -106.94801 1824.8118
-743.33862 -106.98155 1825.4327
-742.75421 -107.01524 1826.0562
-742.10553 -107.03973 1826.5228
-741.56744 -107.08024 1827.2631
-740.98621 -107.1146 1827.8983
-740.42493 -107.15195 1828.5845
-739.88947 -107.19309 1829.3356
-739.54114 -107.26148 1830.5518
-738.99701 -107.3016 1831.2854
-738.55005 -107.35593 1832.2617
-737.95862 -107.38935 1832.8812
-737.26984 -107.40867 1833.2601
-556.66895 -110.7298 1902.0999
-555.84161 -110.73392 1902.2189
-554.97443 -110.7301 1902.2015
-554.10071 -110.72495 1902.1614
-553.25317 -110.72504 1902.2111
-552.3338 -110.71073 1902.0134
-551.53296 -110.72018 1902.2238
-550.60242 -110.70358 1901.9866
-549.80243 -110.7132 1902.2001
-548.94336 -110.71095 1902.2092
-548.20917 -110.73391 1902.6517
-547.42621 -110.74707 1902.9259
-546.70404 -110.77261 1903.4125
-545.89215 -110.78001 1903.5876
-545.13489 -110.79854 1903.9537
-544.40656 -110.82303 1904.4224
-543.74323 -110.86082 1905.1198
-543.1311 -110.90921 1905.9989
-542.41058 -110.93557 1906.4998
-767.92212 -106.16695 1824.0833
-766.74487 -106.11725 1823.2772
-765.68036 -106.08305 1822.7375
-764.67822 -106.05744 1822.3455
-763.63556 -106.02615 1821.8558
-762.60846 -105.99695 1821.402
-761.67841 -105.98119 1821.1792
-760.73987 -105.96421 1820.9355
-759.79395 -105.94618 1820.6738
-758.91412 -105.93733 1820.5698
-758.01532 -105.92581 1820.4199
-757.13507 -105.91686 1820.3142
-756.29767 -105.91389 1820.3114
-755.44257 -105.90845 1820.266
-754.63092 -105.90907 1820.325
-753.8349 -105.9119 1820.4219
-753.03583 -105.91432 1820.5117
-752.25592 -105.91943 1820.6478
-751.48297 -105.92553 1820.801
-750.74335 -105.93636 1821.0355
-749.98578 -105.94467 1821.2269
-749.25055 -105.95616 1821.4728
-748.51764 -105.968 1821.7249
-747.83929 -105.98761 1822.1104
-747.13605 -106.00372 1822.4359
-746.44452 -106.02154 1822.7908
-745.79736 -106.04571 1823.2549
-745.09698 -106.06234 1823.5896
-744.47333 -106.08996 1824.113
-743.80713 -106.11156 1824.5331
-743.20966 -106.14302 1825.1229
-742.63641 -106.17803 1825.7737
-741.99951 -106.204 1826.269
-741.43085 -106.23981 1826.9336
-740.84113 -106.27267 1827.5476
-740.29828 -106.31234 1828.2787
-739.76886 -106.35403 1829.0446
-739.29901 -106.40438 1829.9596
-738.76971 -106.44628 1830.7292
-738.31183 -106.49857 1831.6777
-737.85754 -106.55151 1832.6373
-558.26929 -109.86179 1901.6871
-557.45984 -109.86935 1901.8662
-556.56079 -109.85928 1901.7401
-555.59882 -109.83669 1901.3976
-554.74475 -109.83543 1901.424
-553.7569 -109.80762 1900.9907
-552.80322 -109.78652 1900.6737
-552.04376 -109.80399 1901.0242
-551.10248 -109.78529 1900.7487
-550.35529 -109.80526 1901.1425
-549.42725 -109.78915 1900.9115
-548.6344 -109.80005 1901.1483
-547.82062 -109.80679 1901.313
-547.04419 -109.82104 1901.6077
-546.28094 -109.83801 1901.9492
-545.54236 -109.85998 1902.3776
-544.73584 -109.86832 1902.5698
-544.10632 -109.91245 1903.3818
-543.53168 -109.9678 1904.3881
-542.72589 -109.97649 1904.5865
-542.14819 -110.03152 1905.5873
-541.32281 -110.03637 1905.7189
-540.66589 -110.07552 1906.4446
-540.27509 -110.16907 1908.1124
-769.00201 -105.38274 1824.6632
-767.7536 -105.32374 1823.6896
-766.62152 -105.28059 1822.9905
-765.49237 -105.23776 1822.2968
-764.49091 -105.21241 1821.9058
-763.5257 -105.19199 1821.6002
-762.46698 -105.15864 1821.0707
-761.50958 -105.13921 1820.7823
-760.62006 -105.12911 1820.6555
-759.65826 -105.109 1820.3552
-758.7536 -105.09676 1820.1914
-757.88562 -105.08958 1820.1151
-757.01532 -105.08205 1820.0331
-756.16986 -105.07796 1820.0105
-755.32745 -105.0743 1819.9952
-754.51001 -105.07411 1820.0402
-753.71356 -105.07684 1820.1357
-752.92297 -105.08039 1820.2456
-752.15918 -105.08771 1820.4205
-751.38306 -105.09329 1820.5658
-750.63171 -105.10238 1820.7716
-749.87372 -105.11054 1820.9614
-749.16235 -105.12528 1821.2651
-748.4408 -105.13861 1821.5447
-747.73859 -105.1547 1821.8719
-747.04938 -105.17265 1822.2314
-746.35083 -105.18932 1822.5688
-745.66309 -105.20755 1822.9335
-744.96948 -105.22501 1823.2845
-744.33795 -105.25127 1823.7882
-743.65448 -105.27023 1824.1656
-743.0907 -105.30621 1824.8378
-742.4408 -105.33005 1825.2997
-741.84344 -105.3614 1825.8918
-741.36194 -105.40929 1826.7708
-740.72034 -105.4345 1827.2566
-740.22491 -105.4806 1828.1045
-739.71216 -105.52433 1828.9114
-739.07117 -105.54985 1829.4027
-738.64746 -105.60648 1830.4332
-738.29059 -105.67281 1831.6321
-737.84564 -105.72667 1832.6149
-737.08173 -105.73489 1832.8065
-559.85596 -108.99152 1901.2294
-559.03125 -108.996 1901.356
-558.11823 -108.98325 1901.1819
-557.14954 -108.95956 1900.8173
-556.17853 -108.93536 1900.4434
-555.276 -108.92451 1900.3024
-554.23596 -108.88662 1899.6896
-553.4873 -108.90594 1900.0748
-552.52887 -108.88399 1899.74
-551.65961 -108.87956 1899.7109
-550.80328 -108.87769 1899.7262
-550.00452 -108.88719 1899.9403
-549.14081 -108.88384 1899.9299
-548.27106 -108.8793 1899.8986
-547.50848 -108.89606 1900.239
-546.68994 -108.90174 1900.386
-545.94507 -108.9221 1900.7893
-545.18213 -108.93893 1901.1309
-544.47784 -108.96758 1901.6785
-543.7948 -109.00053 1902.3015
-543.02344 -109.01588 1902.6171
-542.44952 -109.07098 1903.6266
-541.67352 -109.08554 1903.9283
-540.97058 -109.11489 1904.4884
-540.51562 -109.19446 1905.9247
-539.84821 -109.23125 1906.6147
-539.20752 -109.2736 1907.4014
-539.01929 -109.40791 1909.7935
-768.77118 -104.53098 1824.1221
-767.63904 -104.48824 1823.4241
-766.46667 -104.43991 1822.6288
-765.38202 -104.40347 1822.0408
-764.32343 -104.37048 1821.5132
-763.35278 -104.34946 1821.1943
-762.36829 -104.3265 1820.8417
-761.38373 -104.30348 1820.488
-760.48529 -104.29222 1820.3396
-759.5603 -104.2773 1820.1272
-758.65729 -104.26535 1819.9669
-757.78705 -104.2579 1819.885
-756.90857 -104.2493 1819.7831
-756.06348 -104.24529 1819.7612
-755.23553 -104.24362 1819.7805
-754.41229 -104.24261 1819.811
-753.61652 -104.2454 1819.9081
-752.83026 -104.2495 1820.0282
-752.05725 -104.25547 1820.1805
-751.27954 -104.26078 1820.3218
-750.54846 -104.27258 1820.5763
-749.78113 -104.27938 1820.7435
-749.05865 -104.29243 1821.0199
-748.33624 -104.30553 1821.297
-747.64844 -104.32347 1821.6589
-746.94141 -104.33878 1821.9749
-746.25983 -104.35767 1822.3534
-745.55359 -104.37316 1822.6725
-744.87317 -104.39231 1823.0555
-744.21503 -104.41462 1823.4939
-743.56323 -104.43787 1823.9487
-742.99451 -104.47285 1824.6085
-742.3222 -104.49333 1825.015
-741.75507 -104.52867 1825.6812
-741.24017 -104.57148 1826.4777
-740.64233 -104.60265 1827.071
-740.07635 -104.6384 1827.7446
-739.53058 -104.67709 1828.4694
-738.95312 -104.71138 1829.1174
-738.56189 -104.77216 1830.2283
-738.17346 -104.83348 1831.3486
-737.66864 -104.87838 1832.1821
-737.02722 -104.90395 1832.6781
-560.65881 -108.13402 1901.0386
-559.76489 -108.12506 1900.9297
-558.77838 -108.09816 1900.5054
-557.83038 -108.07866 1900.2109
-556.84479 -108.05179 1899.7869
-555.83368 -108.01988 1899.2742
-554.87067 -107.99725 1898.9246
-554.02686 -107.99778 1898.9822
-553.11017 -107.98409 1898.7896
-552.28693 -107.98862 1898.9175
-551.35925 -107.97272 1898.686
-550.50958 -107.97206 1898.7225
-549.6568 -107.97081 1898.7485
-548.77917 -107.96465 1898.6884
-548.05927 -107.98956 1899.1743
-547.22229 -107.99144 1899.2554
-546.42572 -108.00131 1899.4769
-545.69604 -108.02446 1899.9319
-544.90448 -108.0354 1900.1722
-544.22662 -108.06896 1900.8104
-543.44666 -108.08231 1901.0931
-542.78351 -108.119 1901.786
-542.0965 -108.15103 1902.3972
-541.36969 -108.1752 1902.8701
-540.71265 -108.21341 1903.59
-540.15039 -108.27074 1904.6462
-539.38953 -108.28839 1905.0043
-538.93121 -108.36693 1906.4336
-538.3158 -108.41406 1907.3105
-769.88708 -103.75098 1824.7864
-768.62463 -103.69109 1823.7809
-767.43298 -103.64062 1822.9412
-766.33374 -103.60253 1822.3193
-765.28717 -103.5715 1821.8214
-764.21716 -103.53721 1821.2665
-763.22302 -103.51315 1820.8914
-762.26697 -103.49421 1820.6062
-761.29291 -103.47278 1820.2773
-760.37952 -103.45956 1820.0929
-759.4751 -103.44753 1819.9296
-758.5661 -103.43487 1819.7549
-757.70117 -103.42818 1819.6855
-756.82819 -103.42037 1819.5964
-755.98016 -103.41598 1819.5673
-755.15857 -103.41519 1819.6017
-754.33459 -103.41406 1819.6302
-753.53131 -103.41579 1819.7089
-752.74268 -103.41953 1819.8231
-751.98059 -103.42693 1820.0017
-751.20563 -103.43257 1820.1494
-750.46674 -103.44318 1820.3848
-749.70996 -103.45138 1820.5774
-748.99988 -103.46603 1820.8838
-748.26489 -103.47726 1821.13
-747.5589 -103.49255 1821.4476
-746.85254 -103.5078 1821.7648
-746.19287 -103.52957 1822.1967
-745.47858 -103.54382 1822.4961
-744.8222 -103.56614 1822.9376
-744.1441 -103.58548 1823.3269
-743.49274 -103.6086 1823.7826
-742.88446 -103.63777 1824.345
-742.25873 -103.66458 1824.8658
-741.70764 -103.70189 1825.5714
-741.1615 -103.73996 1826.2906
-740.54547 -103.76833 1826.8391
-739.96423 -103.80164 1827.4745
-739.42358 -103.84074 1828.2118
-738.87439 -103.8787 1828.9294
-738.453 -103.93475 1829.9653
-738.08716 -103.99875 1831.1414
-737.55713 -104.03974 1831.9124
-736.94299 -104.06893 1832.4757
-561.44452 -107.27338 1900.7898
-560.4895 -107.25279 1900.4736
-559.59064 -107.24291 1900.3472
-558.55304 -107.20638 1899.7482
-557.49335 -107.16548 1899.072
-556.55017 -107.1469 1898.7911
-555.6358 -107.13381 1898.6075
-554.65527 -107.10791 1898.1968
-553.81824 -107.10969 1898.2765
-552.86774 -107.08949 1897.9667
-552.01788 -107.08875 1898.002
-551.15192 -107.08488 1897.9814
-550.23657 -107.0714 1897.7905
-549.49603 -107.09193 1898.2026
-548.59009 -107.08025 1898.0436
-547.85626 -107.10218 1898.4803
-546.97815 -107.09592 1898.4174
-546.27069 -107.12312 1898.9474
-545.42651 -107.12354 1899.0028
-544.70667 -107.14843 1899.4918
-543.90625 -107.15752 1899.7009
-543.21362 -107.18791 1900.2875
-542.51556 -107.21733 1900.8568
-541.72302 -107.22813 1901.0959
-541.11749 -107.27604 1901.9932
-540.38934 -107.29975 1902.4613
-539.75629 -107.34245 1903.2661
-539.14972 -107.39056 1904.1667
-538.6131 -107.45279 1905.3177
-538.11273 -107.52245 1906.6006
-537.49866 -107.56956 1907.4838
-537.38153 -107.71647 1910.1364
-769.80743 -102.9199 1824.6041
-768.49237 -102.85341 1823.4734
-767.40326 -102.81706 1822.8771
-766.26984 -102.77469 1822.1738
-765.20178 -102.74099 1821.6245
-764.1347 -102.70737 1821.0764
-763.17175 -102.68768 1820.7755
-762.2005 -102.66683 1820.454
-761.22943 -102.64597 1820.1322
-760.31097 -102.63216 1819.9355
-759.40515 -102.62002 1819.7684
-758.50537 -102.60868 1819.6156
-757.63892 -102.60184 1819.5425
-756.76892 -102.59448 1819.4604
-755.91626 -102.58949 1819.42
-755.09491 -102.58873 1819.455
-754.2713 -102.58765 1819.4843
-753.47192 -102.58989 1819.5723
-752.67944 -102.59306 1819.6769
-751.90674 -102.59893 1819.8295
-751.14209 -102.60593 1820.0021
-750.40253 -102.61636 1820.2358
-749.65845 -102.62621 1820.4589
-748.92554 -102.6376 1820.7096
-748.19196 -102.64893 1820.9592
-747.52087 -102.66888 1821.3617
-746.79956 -102.68195 1821.6423
-746.1319 -102.70245 1822.0546
-745.42926 -102.71817 1822.3822
-744.76227 -102.73883 1822.7976
-744.08429 -102.75803 1823.1871
-743.41937 -102.77908 1823.6094
-742.81329 -102.80833 1824.177
-742.19934 -102.83654 1824.7267
-741.60144 -102.86703 1825.3168
-741.05463 -102.90471 1826.0342
-740.46252 -102.93616 1826.6412
-739.93201 -102.97625 1827.4017
-739.3111 -103.00385 1827.9406
-738.79816 -103.04655 1828.7477
-738.38763 -103.10366 1829.8103
-738.05548 -103.17185 1831.0697
-737.39105 -103.1937 1831.5067
-736.84723 -103.23249 1832.2445
-736.29236 -103.26981 1832.9563
-562.2337 -106.41364 1900.5535
-561.31543 -106.40018 1900.3619
-560.30145 -106.36855 1899.8453
-559.24652 -106.32901 1899.1879
-558.28168 -106.30653 1898.8346
-557.27429 -106.27584 1898.3351
-556.27527 -106.24668 1897.8625
-555.39178 -106.23952 1897.7831
-554.46686 -106.2244 1897.5614
-553.51288 -106.20367 1897.2393
-552.68286 -106.2067 1897.3414
-551.78766 -106.19717 1897.2196
-550.91949 -106.19284 1897.1904
-550.0575 -106.18967 1897.182
-549.24377 -106.19585 1897.3405
-548.40784 -106.19775 1897.4224
-547.64728 -106.21427 1897.7655
-546.79437 -106.2129 1897.7889
-546.04596 -106.23185 1898.1755
-545.23248 -106.23818 1898.3367
-544.50531 -106.26138 1898.7991
-543.71747 -106.2728 1899.0509
-543.00659 -106.29932 1899.5728
-542.26062 -106.31904 1899.9728
-541.54559 -106.34489 1900.4827
-540.84869 -106.3744 1901.0579
-540.15625 -106.40488 1901.6501
-539.52661 -106.44785 1902.4657
-538.92554 -106.49659 1903.3845
-538.24756 -106.53027 1904.0342
-537.7406 -106.59796 1905.2916
-537.18628 -106.65646 1906.3848
-536.44348 -106.67767 1906.8115
-769.73975 -102.09056 1824.4501
-768.33032 -102.01207 1823.0953
-767.18506 -101.96851 1822.3651
-766.18976 -101.94482 1821.9897
-765.15002 -101.91516 1821.5078
-764.08478 -101.88203 1820.9639
-763.08203 -101.85719 1820.568
-762.14221 -101.84069 1820.3213
-761.17352 -101.8203 1820.0049
-760.26263 -101.80761 1819.8263
-759.35889 -101.79584 1819.6641
-758.45258 -101.7837 1819.4955
-757.58606 -101.7769 1819.4221
-756.72504 -101.77081 1819.3616
-755.8739 -101.76604 1819.3247
-755.04602 -101.7644 1819.3436
-754.22229 -101.76331 1819.3727
-753.42462 -101.76574 1819.4645
-752.6322 -101.76888 1819.5692
-751.85492 -101.77409 1819.7108
-751.09625 -101.78182 1819.8976
-750.34619 -101.79075 1820.1057
-749.60168 -101.80045 1820.3278
-748.88635 -101.81413 1820.6211
-748.1615 -101.82655 1820.8918
-747.47156 -101.84376 1821.2482
-746.74591 -101.85614 1821.5182
-746.08618 -101.87753 1821.9496
-745.37048 -101.89133 1822.2452
-744.71954 -101.91403 1822.6998
-744.03247 -101.93182 1823.0669
-743.37994 -101.95438 1823.5194
-742.75525 -101.98084 1824.0414
-742.13568 -102.00803 1824.5768
-741.5683 -102.04248 1825.2419
-740.96765 -102.07243 1825.8267
-740.41608 -102.1092 1826.5334
-739.90558 -102.15173 1827.3434
-739.29102 -102.17997 1827.8976
-738.7998 -102.22535 1828.7585
-738.37744 -102.28036 1829.7919
-737.89789 -102.32755 1830.6855
-737.35254 -102.36574 1831.418
-736.78668 -102.40114 1832.1007
-563.02356 -105.55422 1900.3197
-562.07123 -105.5345 1900.0134
-561.09741 -105.51067 1899.6331
-560.07831 -105.47825 1899.0978
-559.01044 -105.43653 1898.3954
-557.95789 -105.39758 1897.7424
-557.06647 -105.38899 1897.6365
-556.08862 -105.36401 1897.235
-555.11011 -105.33883 1896.8298
-554.2337 -105.33297 1896.7727
-553.32635 -105.3212 1896.6091
-552.45514 -105.31629 1896.569
-551.59821 -105.31408 1896.5774
-550.73193 -105.3101 1896.5537
-549.90015 -105.3127 1896.6488
-549.03186 -105.3083 1896.6177
-548.26331 -105.32306 1896.9315
-547.4032 -105.32024 1896.9288
-546.64825 -105.33768 1897.291
-545.81982 -105.34101 1897.3988
-545.09619 -105.36459 1897.8716
-544.31293 -105.3767 1898.1376
-543.57477 -105.3976 1898.5618
-542.83246 -105.41776 1898.9728
-542.05298 -105.43075 1899.2545
-541.37219 -105.46301 1899.8835
-540.62787 -105.48297 1900.2909
-540.00049 -105.52585 1901.1111
-539.33643 -105.56169 1901.8044
-538.70276 -105.6036 1902.6072
-538.08746 -105.64924 1903.4771
-537.57812 -105.71588 1904.7255
-536.97467 -105.76417 1905.6432
-536.39795 -105.8179 1906.6589
-535.63232 -105.83449 1907.0052
-769.56183 -101.24687 1824.0347
-768.3158 -101.1905 1823.0673
-767.16974 -101.14719 1822.3351
-766.14203 -101.11941 1821.8827
-765.08972 -101.08831 1821.3706
-764.04932 -101.05873 1820.8859
-763.06201 -101.03612 1820.5265
-762.10223 -101.0171 1820.2321
-761.14532 -100.99843 1819.944
-760.23383 -100.98575 1819.7637
-759.33105 -100.97421 1819.6039
-758.42102 -100.96166 1819.4263
-757.55658 -100.95518 1819.3578
-756.69153 -100.9486 1819.2875
-755.84076 -100.94391 1819.2515
-755.01343 -100.94234 1819.2716
-754.18451 -100.94056 1819.2878
-753.38873 -100.94323 1819.3844
-752.59485 -100.94614 1819.4854
-751.82208 -100.9519 1819.6377
-751.05487 -100.95843 1819.804
-750.31268 -100.96833 1820.031
-749.57281 -100.97856 1820.2642
-748.86554 -100.99323 1820.577
-748.13086 -101.00421 1820.8239
-747.44116 -101.0213 1821.1807
-746.71655 -101.03372 1821.4532
-746.05219 -101.05431 1821.8732
-745.33789 -101.06818 1822.1721
-744.68634 -101.0906 1822.6252
-743.98846 -101.10677 1822.9657
-743.34375 -101.13023 1823.4374
-742.70551 -101.1546 1823.9259
-742.09296 -101.18253 1824.4784
-741.55347 -101.2205 1825.2122
-740.93311 -101.24751 1825.7482
-740.36279 -101.28142 1826.4088
-739.7959 -101.31587 1827.0792
-739.28424 -101.35799 1827.8878
-738.72418 -101.39353 1828.5781
-738.27063 -101.4438 1829.5339
-737.82599 -101.4954 1830.5139
-737.26538 -101.53117 1831.2083
-736.76666 -101.57554 1832.0579
-736.22406 -101.61394 1832.8
-563.84711 -104.70127 1900.2
-562.92096 -104.68661 1899.9825
-561.91003 -104.65608 1899.4774
-560.79883 -104.60679 1898.6313
-559.80078 -104.57847 1898.166
-558.81683 -104.55271 1897.7469
-557.7616 -104.51352 1897.0841
-556.80695 -104.49307 1896.7615
-555.90485 -104.48245 1896.6171
-554.94275 -104.4605 1896.267
-554.04767 -104.45112 1896.145
-553.15289 -104.44177 1896.0237
-552.2876 -104.43797 1896.0029
-551.4295 -104.43552 1896.0066
-550.54596 -104.42823 1895.9225
-549.7287 -104.43351 1896.0665
-548.89142 -104.435 1896.1416
-548.07526 -104.44052 1896.29
-547.24298 -104.44299 1896.3829
-546.49097 -104.4608 1896.7544
-545.67877 -104.46716 1896.9176
-544.953 -104.4901 1897.3822
-544.12463 -104.49341 1897.4902
-543.40509 -104.51766 1897.9785
-542.64111 -104.53342 1898.3126
-541.92603 -104.55868 1898.819
-541.25104 -104.59175 1899.4674
-540.4892 -104.60813 1899.8127
-539.83191 -104.64483 1900.5269
-539.17169 -104.68108 1901.2329
-538.50677 -104.71651 1901.9243
-537.9118 -104.76569 1902.8651
-537.31616 -104.81489 1903.8064
-536.62976 -104.84653 1904.4286
-536.07001 -104.90304 1905.5027
-535.50269 -104.95824 1906.553
-769.51691 -100.42091 1823.9346
-768.22925 -100.35955 1822.8682
-767.10815 -100.31984 1822.1952
-766.11804 -100.2972 1821.832
-765.0932 -100.26995 1821.3854
-764.04413 -100.23947 1820.8799
-763.034 -100.21404 1820.4661
-762.10132 -100.19875 1820.2365
-761.13086 -100.17843 1819.9156
-760.21027 -100.16465 1819.7136
-759.3139 -100.15404 1819.5692
-758.4079 -100.14214 1819.4012
-757.53662 -100.13479 1819.3162
-756.67273 -100.1284 1819.2487
-755.82141 -100.12368 1819.2113
-754.99042 -100.12164 1819.2225
-754.16162 -100.11989 1819.2393
-753.36432 -100.12231 1819.3318
-752.5708 -100.12525 1819.4338
-751.79822 -100.13099 1819.5865
-751.04034 -100.13869 1819.7753
-750.28857 -100.14724 1819.9791
-749.54901 -100.15742 1820.2129
-748.8327 -100.17075 1820.5038
-748.11139 -100.18343 1820.783
-747.41962 -100.2001 1821.1348
-746.69061 -100.21181 1821.3964
-746.03748 -100.23375 1821.8439
-745.3172 -100.24671 1822.1283
-744.65985 -100.26815 1822.5669
-743.9707 -100.28537 1822.9288
-743.34558 -100.31126 1823.4485
-742.7132 -100.33623 1823.9513
-742.07141 -100.35999 1824.4321
-741.5025 -100.39366 1825.0934
-740.90216 -100.42316 1825.6787
-740.34241 -100.45822 1826.3652
-739.80713 -100.49667 1827.1136
-739.24677 -100.53182 1827.8018
-738.65076 -100.56218 1828.4031
-738.29266 -100.62505 1829.5953
-737.77002 -100.6656 1830.382
-737.26495 -100.70864 1831.214
-736.76831 -100.75293 1832.0687
-736.18536 -100.78549 1832.7104
-564.67004 -103.84832 1900.0786
-563.75134 -103.83514 1899.8864
-562.80878 -103.81754 1899.613
-561.74811 -103.77805 1898.9393
-560.57861 -103.71831 1897.8948
-559.50055 -103.67533 1897.1571
-558.55316 -103.65647 1896.8606
-557.59119 -103.63485 1896.5134
-556.6192 -103.61131 1896.131
-555.72534 -103.60225 1896.0137
-554.7981 -103.58692 1895.7817
-553.86786 -103.57101 1895.5388
-552.99432 -103.56566 1895.4893
-552.10931 -103.55814 1895.3999
-551.27509 -103.56014 1895.4847
-550.41016 -103.55636 1895.4637
-549.60052 -103.56302 1895.6337
-548.75269 -103.56245 1895.6716
-547.93268 -103.56716 1895.8059
-547.10822 -103.57104 1895.9249
-546.31995 -103.58179 1896.1698
-545.52368 -103.59108 1896.3877
-544.77112 -103.60868 1896.7579
-543.99365 -103.62161 1897.0426
-543.25055 -103.64114 1897.4479
-542.47162 -103.65388 1897.729
-541.78729 -103.68475 1898.342
-541.00531 -103.69701 1898.6145
-540.34088 -103.73188 1899.3005
-539.69336 -103.77011 1900.0483
-538.93945 -103.78797 1900.4231
-538.33643 -103.83499 1901.3318
-537.74725 -103.88484 1902.2922
-537.02374 -103.90885 1902.7797
-536.44867 -103.96171 1903.795
-535.85712 -104.01154 1904.7554
-535.26147 -104.06072 1905.7036
-769.48022 -99.596123 1823.8539
-768.19928 -99.536118 1822.8033
-767.09601 -99.499039 1822.1726
-766.10583 -99.476562 1821.8092
-765.05151 -99.445702 1821.2922
-764.03943 -99.420288 1820.8749
-763.02258 -99.39418 1820.4451
-762.09241 -99.379326 1820.2213
-761.12836 -99.360016 1819.916
-760.2019 -99.345581 1819.7
-759.29773 -99.334038 1819.5369
-758.39954 -99.323235 1819.3875
-757.53381 -99.316681 1819.3158
-756.66351 -99.309517 1819.2329
-755.80725 -99.304176 1819.1836
-754.98022 -99.302666 1819.2043
-754.15308 -99.30114 1819.225
-753.35468 -99.303398 1819.3149
-752.56232 -99.306465 1819.4197
-751.78424 -99.311424 1819.5592
-751.02832 -99.319328 1819.7526
-750.28168 -99.328476 1819.9689
-749.54218 -99.338585 1820.2028
-748.81274 -99.35006 1820.4618
-748.09448 -99.363029 1820.7483
-747.40253 -99.379547 1821.0996
-746.69421 -99.393921 1821.4119
-746.01434 -99.412094 1821.7938
-745.30151 -99.425934 1822.0963
-744.66296 -99.449722 1822.5812
-743.95599 -99.464417 1822.8994
-743.33496 -99.490631 1823.429
-742.68744 -99.513367 1823.8947
-742.05945 -99.538773 1824.4094
-741.52197 -99.576401 1825.1481
-740.87848 -99.599846 1825.627
-740.31091 -99.63356 1826.2941
-739.8064 -99.67585 1827.1185
-739.18524 -99.702499 1827.6562
-738.6756 -99.74427 1828.4712
-738.21545 -99.792831 1829.4108
-737.76312 -99.842545 1830.3716
-737.19122 -99.876175 1831.0376
-736.71637 -99.923042 1831.9462
-736.28851 -99.976402 1832.974
-564.65906 -102.99785 1900.0505
-563.633 -102.96516 1899.4966
-562.54254 -102.92061 1898.7234
-561.50958 -102.88645 1898.142
-560.42456 -102.84263 1897.3822
-559.3576 -102.80201 1896.6814
-558.34406 -102.77108 1896.1594
-557.45239 -102.76255 1896.0505
-556.48425 -102.73985 1895.6803
-555.53864 -102.72126 1895.3857
-554.66888 -102.71667 1895.3495
-553.73676 -102.70048 1895.0991
-552.85913 -102.69437 1895.0348
-551.99677 -102.69109 1895.0225
-551.13574 -102.68805 1895.0146
-550.29022 -102.6879 1895.0599
-549.44165 -102.68716 1895.0946
-548.63171 -102.69368 1895.2629
-547.7887 -102.69398 1895.3168
-547.00659 -102.70574 1895.5819
-546.17053 -102.70741 1895.6605
-545.40527 -102.72239 1895.9851
-544.61102 -102.73195 1896.2096
-543.86658 -102.75096 1896.6084
-543.11371 -102.76845 1896.9791
-542.35736 -102.78531 1897.3383
-541.59644 -102.80136 1897.6824
-540.84576 -102.81943 1898.0637
-540.19836 -102.8572 1898.8087
-539.48444 -102.88241 1899.3219
-538.81525 -102.91624 1899.9944
-538.17798 -102.95629 1900.7815
-537.47894 -102.98464 1901.3524
-536.82745 -103.02219 1902.0934
-536.21082 -103.06656 1902.9603
-535.71637 -103.13459 1904.264
-769.47217 -98.77507 1823.8409
-768.23254 -98.720879 1822.8885
-767.12158 -98.683113 1822.2395
-766.08881 -98.655342 1821.7749
-765.0705 -98.629387 1821.3439
-764.01611 -98.598701 1820.8256
-763.03632 -98.577599 1820.4843
-762.09778 -98.561783 1820.2405
-761.13989 -98.543434 1819.95
-760.20862 -98.528496 1819.7224
-759.31409 -98.518295 1819.5824
-758.4035 -98.505981 1819.4034
-757.53284 -98.498833 1819.3198
-756.6673 -98.492332 1819.2484
-755.81769 -98.487907 1819.2151
-754.98425 -98.48558 1819.2206
-754.15576 -98.483887 1819.2379
-753.35724 -98.486107 1819.3275
-752.56445 -98.489098 1819.4313
-751.79047 -98.494545 1819.5807
-751.03046 -98.501839 1819.7642
-750.28369 -98.510895 1819.9801
-749.547 -98.521286 1820.2208
-748.82935 -98.53421 1820.5084
-748.09924 -98.545532 1820.7664
-747.41852 -98.563385 1821.145
-746.68274 -98.574005 1821.3903
-746 -98.59166 1821.7654
-745.29443 -98.606346 1822.0856
-744.66046 -98.630547 1822.5817
-743.94421 -98.643875 1822.8771
-743.32996 -98.670776 1823.4232
-742.71143 -98.697182 1823.9602
-742.07526 -98.721291 1824.4548
-741.52582 -98.757004 1825.1641
-740.86243 -98.777596 1825.5939
-740.28827 -98.810158 1826.2449
-739.73236 -98.84523 1826.9424
-739.16711 -98.87912 1827.618
-738.69574 -98.925674 1828.5278
-738.26147 -98.977295 1829.5314
-737.72626 -99.015488 1830.2867
-737.16498 -99.05027 1830.9791
-736.71265 -99.09977 1831.9437
-736.2746 -99.151314 1832.946
-565.54907 -102.15714 1900.1544
-564.58838 -102.1366 1899.8214
-563.49554 -102.09208 1899.0421
-562.3147 -102.03145 1897.9631
-561.22119 -101.9865 1897.1758
-560.27301 -101.96786 1896.8779
-559.23273 -101.93239 1896.2666
-558.21857 -101.90159 1895.7422
-557.27594 -101.88376 1895.4591
-556.34882 -101.86871 1895.2277
-555.39417 -101.84859 1894.9016
-554.52454 -101.84401 1894.865
-553.61829 -101.83268 1894.7026
-552.73975 -101.82642 1894.6344
-551.86963 -101.82171 1894.5951
-550.99908 -101.81689 1894.5537
-550.17279 -101.82024 1894.6644
-549.31274 -101.81737 1894.6591
-548.50061 -101.82337 1894.819
-547.66455 -101.82494 1894.8962
-546.87878 -101.83588 1895.1481
-546.04816 -101.83849 1895.2446
-545.27435 -101.85173 1895.5389
-544.48816 -101.86268 1895.7909
-543.7533 -101.8833 1896.2225
-542.9668 -101.89427 1896.4747
-542.23352 -101.91531 1896.9142
-541.495 -101.93541 1897.3362
-540.7511 -101.95456 1897.7405
-540.08356 -101.9882 1898.4144
-539.3501 -102.00948 1898.8583
-538.65179 -102.03747 1899.427
-538.03723 -102.08144 1900.2935
-537.3399 -102.10983 1900.8695
-536.72876 -102.15472 1901.7528
-536.12183 -102.20054 1902.6534
-535.37183 -102.21921 1903.0487
-534.8064 -102.27322 1904.1018
-534.22363 -102.32407 1905.0963
-769.50891 -97.959763 1823.9343
-768.26306 -97.905212 1822.967
-767.18933 -97.87252 1822.4066
-766.12762 -97.841293 1821.8735
-765.06122 -97.809395 1821.3279
-764.03796 -97.782959 1820.8839
-763.07434 -97.764107 1820.5812
-762.10663 -97.744682 1820.2678
-761.15271 -97.72699 1819.9869
-760.23383 -97.713768 1819.7889
-759.32971 -97.702415 1819.6261
-758.41937 -97.690239 1819.4478
-757.54944 -97.683243 1819.366
-756.68213 -97.676575 1819.2903
-755.8316 -97.672073 1819.2549
-754.99927 -97.669891 1819.2629
-754.16956 -97.66806 1819.2775
-753.3717 -97.670349 1819.3688
-752.57587 -97.67292 1819.4652
-751.81085 -97.679489 1819.6364
-751.04285 -97.685684 1819.8005
-750.30231 -97.695473 1820.0316
-749.56006 -97.705063 1820.259
-748.83868 -97.717392 1820.5376
-748.11206 -97.729073 1820.8041
-747.42505 -97.745956 1821.1675
-746.69019 -97.756607 1821.4148
-746.00751 -97.774124 1821.7902
-745.29645 -97.787949 1822.0968
-744.65161 -97.810516 1822.5663
-743.97327 -97.828728 1822.9547
-743.35919 -97.855431 1823.5013
-742.70282 -97.876633 1823.9456
-742.09741 -97.904594 1824.5157
-741.50769 -97.934692 1825.1259
-740.88513 -97.960518 1825.6564
-740.30804 -97.992416 1826.3002
-739.80103 -98.033684 1827.1184
-739.16864 -98.058395 1827.6284
-738.7038 -98.105423 1828.5543
-738.27814 -98.157768 1829.5793
-737.75006 -98.196587 1830.3524
-737.1864 -98.230766 1831.0389
-736.76794 -98.284378 1832.0879
-736.255 -98.325493 1832.9039
-566.38983 -101.30748 1900.0927
-565.49536 -101.29902 1899.9829
-564.43701 -101.26112 1899.3212
-563.32227 -101.21297 1898.4669
-562.21539 -101.16611 1897.6367
-561.06445 -101.11116 1896.6548
-560.07965 -101.08603 1896.2322
-559.11157 -101.06384 1895.8646
-558.104 -101.03445 1895.3621
-557.14093 -101.01303 1895.0088
-556.22137 -100.99945 1894.8025
-555.29059 -100.9838 1894.5573
-554.4024 -100.97585 1894.4565
-553.50415 -100.96603 1894.3207
-552.61517 -100.95789 1894.2164
-551.76355 -100.95654 1894.2396
-550.88904 -100.95102 1894.1841
-550.05743 -100.95335 1894.2761
-549.21796 -100.95424 1894.3411
-548.38831 -100.95692 1894.4397
-547.57312 -100.9623 1894.5889
-546.75897 -100.96788 1894.7416
-545.96069 -100.97643 1894.95
-545.185 -100.98918 1895.2374
-544.37543 -100.99567 1895.4073
-543.64667 -101.01722 1895.8596
-542.86377 -101.02875 1896.124
-542.12823 -101.04915 1896.5547
-541.3714 -101.06564 1896.912
-540.64697 -101.08823 1897.3842
-539.92365 -101.11111 1897.8612
-539.24103 -101.14169 1898.4832
-538.57477 -101.17544 1899.1643
-537.88397 -101.20468 1899.7611
-537.20178 -101.23564 1900.3899
-536.60516 -101.28285 1901.3239
-535.97552 -101.32397 1902.1434
-535.29663 -101.35588 1902.7903
-534.66467 -101.39681 1903.6062
-534.03857 -101.43897 1904.4453
-769.56512 -97.14682 1824.0737
-768.33063 -97.09417 1823.1335
-767.25494 -97.061508 1822.5686
-766.16132 -97.026512 1821.9598
-765.09497 -96.994888 1821.4143
-764.05603 -96.966682 1820.9331
-763.08405 -96.946915 1820.6104
-762.14783 -96.931679 1820.3726
-761.17987 -96.912338 1820.0579
-760.25616 -96.898613 1819.8486
-759.35626 -96.887901 1819.6959
-758.4491 -96.876228 1819.5253
-757.5722 -96.868408 1819.4269
-756.70709 -96.862076 1819.3566
-755.8562 -96.857559 1819.3203
-755.0257 -96.855637 1819.3329
-754.19659 -96.853905 1819.349
-753.39868 -96.856178 1819.4403
-752.60626 -96.859161 1819.545
-751.83936 -96.865433 1819.7115
-751.0744 -96.871979 1819.8833
-750.32385 -96.880386 1820.0902
-749.58807 -96.890739 1820.3335
-748.85944 -96.902031 1820.5944
-748.12933 -96.913162 1820.8524
-747.43347 -96.928749 1821.1943
-746.71906 -96.941963 1821.4916
-746.03247 -96.958839 1821.8575
-745.31549 -96.971794 1822.1499
-744.67383 -96.994576 1822.6272
-743.98657 -97.011475 1822.9938
-743.38031 -97.038979 1823.5597
-742.74567 -97.062836 1824.0573
-742.10461 -97.085907 1824.54
-741.54993 -97.120338 1825.2363
-740.91449 -97.144264 1825.7352
-740.34991 -97.177536 1826.4099
-739.83478 -97.217392 1827.2084
-739.22797 -97.24527 1827.7817
-738.70013 -97.283615 1828.5519
-738.28497 -97.336899 1829.6028
-737.79797 -97.380821 1830.4779
-737.24646 -97.416313 1831.1946
-736.74481 -97.458488 1832.037
-736.29932 -97.508179 1833.0208
-735.72125 -97.540421 1833.6765
-566.38873 -100.45879 1900.0978
-565.40985 -100.43539 1899.7042
-564.30048 -100.38873 1898.8705
-563.14417 -100.33353 1897.8755
-562.04871 -100.28904 1897.0828
-560.95923 -100.24549 1896.3079
-559.93109 -100.21278 1895.7379
-558.97388 -100.1927 1895.4066
-557.98309 -100.16652 1894.96
-557.02563 -100.14626 1894.6254
-556.11926 -100.13514 1894.4634
-555.19489 -100.12074 1894.2395
-554.29474 -100.11066 1894.0973
-553.41162 -100.10364 1894.0129
-552.51306 -100.0938 1893.8752
-551.66803 -100.09364 1893.9207
-550.79889 -100.0891 1893.8831
-549.96185 -100.09039 1893.9557
-549.12122 -100.09103 1894.016
-548.2959 -100.09447 1894.1294
-547.47339 -100.09844 1894.2527
-546.65845 -100.10381 1894.4022
-545.85907 -100.11203 1894.6061
-545.0896 -100.12579 1894.9146
-544.29626 -100.13519 1895.1406
-543.54352 -100.15212 1895.5089
-542.76135 -100.16366 1895.7753
-542.04437 -100.18729 1896.2703
-541.27527 -100.20132 1896.5841
-540.56354 -100.22607 1897.1003
-539.8454 -100.24969 1897.5951
-539.14392 -100.27648 1898.1501
-538.47076 -100.30862 1898.8065
-537.76392 -100.33461 1899.3461
-537.11713 -100.37188 1900.0994
-536.54395 -100.42305 1901.1158
-535.79211 -100.4409 1901.5015
-535.1825 -100.4855 1902.3934
-534.54272 -100.52458 1903.181
-769.66077 -96.338692 1824.3064
-768.38654 -96.281525 1823.2723
-767.29913 -96.247673 1822.6797
-766.23059 -96.216118 1822.1306
-765.13153 -96.180672 1821.5076
-764.09521 -96.15303 1821.0326
-763.11981 -96.133003 1820.7019
-762.18427 -96.117973 1820.4656
-761.2262 -96.10006 1820.1749
-760.30267 -96.086472 1819.9661
-759.39862 -96.075333 1819.8036
-758.49084 -96.06369 1819.6316
-757.61853 -96.056511 1819.5443
-756.74518 -96.04921 1819.4545
-755.89264 -96.04451 1819.4142
-755.06342 -96.042778 1819.4301
-754.24011 -96.041794 1819.4602
-753.44452 -96.04435 1819.5573
-752.64771 -96.046745 1819.6515
-751.87823 -96.052643 1819.812
-751.11292 -96.05909 1819.9829
-750.37549 -96.069122 1820.2218
-749.62286 -96.077217 1820.4242
-748.88538 -96.087288 1820.6638
-748.16803 -96.09996 1820.9529
-747.47205 -96.11541 1821.2947
-746.74994 -96.127533 1821.5734
-746.06781 -96.144836 1821.9502
-745.34705 -96.157196 1822.2335
-744.71204 -96.180649 1822.7271
-744.00519 -96.19487 1823.0458
-743.39343 -96.221428 1823.5983
-742.74408 -96.243179 1824.0597
-742.10559 -96.266396 1824.5488
-741.57251 -96.303337 1825.2983
-740.94336 -96.327873 1825.8127
-740.36255 -96.358757 1826.4475
-739.8667 -96.400795 1827.2937
-739.30444 -96.43425 1827.9773
-738.755 -96.46946 1828.6941
-738.34515 -96.523003 1829.7585
-737.81268 -96.560593 1830.5209
-737.25592 -96.5951 1831.2246
-736.73505 -96.634392 1832.0192
-736.25543 -96.679199 1832.9182
-567.25366 -99.613411 1900.1167
-566.36902 -99.606819 1900.0402
-565.29059 -99.566093 1899.3124
-564.14398 -99.513199 1898.3524
-562.979 -99.456917 1897.3276
-561.91119 -99.417656 1896.6276
-560.8703 -99.383034 1896.016
-559.8075 -99.344429 1895.3282
-558.83136 -99.321121 1894.9321
-557.89551 -99.304901 1894.6714
-556.94336 -99.285721 1894.3541
-556.02472 -99.272476 1894.15
-555.11249 -99.260345 1893.9672
-554.19165 -99.246635 1893.754
-553.31354 -99.240532 1893.6859
-552.42841 -99.233162 1893.5938
-551.56848 -99.230301 1893.5875
-550.70587 -99.226952 1893.5719
-549.86377 -99.227287 1893.6267
-549.0318 -99.229454 1893.7164
-548.19635 -99.23101 1893.7943
-547.39178 -99.238174 1893.9791
-546.57605 -99.243309 1894.1254
-545.77539 -99.251228 1894.3246
-544.98566 -99.261147 1894.562
-544.21198 -99.274033 1894.8561
-543.43408 -99.286179 1895.1359
-542.68945 -99.304459 1895.5327
-541.9552 -99.324699 1895.9672
-541.18311 -99.338058 1896.2701
-540.4845 -99.36496 1896.8315
-539.73706 -99.382973 1897.2233
-539.04047 -99.410408 1897.7948
-538.40656 -99.449509 1898.5891
-537.64929 -99.465912 1898.9501
-537.02057 -99.50618 1899.7666
-536.3573 -99.540184 1900.4635
-535.6908 -99.573669 1901.1506
-535.11951 -99.625008 1902.1786
-534.49438 -99.666466 1903.0178
-533.78845 -99.692963 1903.5714
-769.74524 -95.528976 1824.5127
-768.5025 -95.476212 1823.5536
-767.39923 -95.440697 1822.9236
-766.33905 -95.410461 1822.3945
-765.19513 -95.369728 1821.665
-764.14185 -95.340225 1821.1499
-763.16443 -95.320122 1820.8145
-762.23779 -95.306328 1820.5995
-761.27753 -95.2883 1820.3037
-760.36438 -95.276138 1820.1199
-759.45856 -95.26487 1819.9532
-758.54529 -95.252647 1819.7684
-757.67194 -95.245407 1819.6787
-756.79767 -95.238045 1819.5867
-755.94849 -95.233826 1819.5548
-755.11426 -95.231483 1819.5587
-754.29047 -95.230446 1819.5878
-753.49255 -95.232689 1819.6793
-752.69861 -95.235435 1819.7806
-751.93231 -95.241699 1819.9491
-751.16772 -95.248184 1820.1219
-750.42712 -95.257729 1820.3533
-749.67163 -95.265404 1820.5488
-748.96271 -95.279022 1820.858
-748.21106 -95.287224 1821.0638
-747.51581 -95.302643 1821.4075
-746.7948 -95.314812 1821.6891
-746.10883 -95.331474 1822.0566
-745.39917 -95.345154 1822.3672
-744.75317 -95.366997 1822.834
-744.07257 -95.384476 1823.217
-743.42993 -95.406853 1823.6941
-742.81787 -95.433212 1824.2473
-742.18207 -95.456581 1824.7432
-741.59192 -95.48587 1825.3524
-740.99951 -95.514946 1825.9576
-740.41388 -95.544952 1826.5807
-739.88647 -95.58255 1827.3489
-739.32318 -95.615585 1828.0299
-738.77496 -95.650658 1828.75
-738.34491 -95.701111 1829.7642
-737.89337 -95.748901 1830.7275
-737.31842 -95.780762 1831.3864
-736.79626 -95.819565 1832.1779
-736.349 -95.868202 1833.1576
-567.28918 -98.771065 1900.2443
-566.31879 -98.749596 1899.8804
-565.18585 -98.699669 1898.9689
-563.95349 -98.632217 1897.72
-562.78369 -98.575508 1896.678
-561.758 -98.543922 1896.119
-560.75293 -98.515854 1895.6279
-559.74384 -98.487 1895.1215
-558.74823 -98.460434 1894.6589
-557.82849 -98.447166 1894.4524
-556.86676 -98.426453 1894.1024
-555.95477 -98.414467 1893.9204
-555.03461 -98.401009 1893.7101
-554.12018 -98.388519 1893.5182
-553.23346 -98.380928 1893.4205
-552.35736 -98.375214 1893.359
-551.49225 -98.371429 1893.3346
-550.638 -98.369583 1893.3474
-549.78613 -98.368149 1893.3682
-548.96796 -98.372749 1893.505
-548.13251 -98.37426 1893.5824
-547.32697 -98.381149 1893.7633
-546.50116 -98.384445 1893.8748
-545.71539 -98.394943 1894.1251
-544.90771 -98.40152 1894.2998
-544.14362 -98.416 1894.6266
-543.36145 -98.427254 1894.8914
-542.61273 -98.444611 1895.2736
-541.87244 -98.463562 1895.6864
-541.12152 -98.480629 1896.063
-540.40973 -98.504898 1896.578
-539.67706 -98.525421 1897.0211
-538.98877 -98.554123 1897.6216
-538.32892 -98.588127 1898.3242
-537.57892 -98.60569 1898.7102
-536.93671 -98.643127 1899.4789
-536.24567 -98.671692 1900.0768
-535.62329 -98.713005 1900.92
-535.0188 -98.757744 1901.8293
-534.39838 -98.79969 1902.6847
-533.7406 -98.834862 1903.4097
-769.96564 -94.735794 1825.041
-768.70416 -94.681221 1824.0381
-767.52667 -94.636871 1823.2323
-766.42328 -94.601578 1822.6008
-765.28748 -94.56221 1821.8909
-764.23486 -94.533051 1821.3776
-763.28406 -94.516426 1821.1058
-762.30145 -94.495834 1820.7577
-761.34979 -94.479042 1820.4827
-760.44836 -94.468437 1820.327
-759.51965 -94.45443 1820.1058
-758.6084 -94.442558 1819.9258
-757.74664 -94.436844 1819.8643
-756.8678 -94.428986 1819.7615
-756.00983 -94.423714 1819.7086
-755.17987 -94.421921 1819.723
-754.35449 -94.420715 1819.7484
-753.55804 -94.423126 1819.8438
-752.76538 -94.42601 1819.9482
-752.00366 -94.4328 1820.1279
-751.22656 -94.437668 1820.2706
-750.48871 -94.447479 1820.5088
-749.72528 -94.454102 1820.6853
-749.01501 -94.46743 1820.9913
-748.25952 -94.475098 1821.1881
-747.57233 -94.491402 1821.5515
-746.84985 -94.503273 1821.8296
-746.17517 -94.52124 1822.225
-745.44598 -94.532318 1822.4878
-744.79626 -94.55352 1822.9458
-744.11609 -94.570908 1823.3301
-743.4939 -94.595695 1823.8574
-742.85205 -94.618042 1824.3375
-742.24426 -94.644791 1824.9025
-741.69073 -94.678505 1825.6021
-741.11243 -94.709129 1826.2421
-740.48199 -94.733177 1826.755
-739.94373 -94.769073 1827.4967
-739.37927 -94.801674 1828.175
-738.86737 -94.84111 1828.9851
-738.40668 -94.887215 1829.9237
-737.94592 -94.933411 1830.8644
-737.39819 -94.968521 1831.5911
-736.88599 -95.008278 1832.4076
-736.39453 -95.050797 1833.2775
-567.26447 -97.918236 1900.17
